14.980225 -40.428902 32.791992 0.502500 -0.585100 0.636600
24.240021 -34.775803 52.624893 0.497800 -0.789400 -0.359200
26.645905 -33.098301 44.768890 0.344600 -0.932500 0.108000
-16.180695 -60.860901 2.783783 0.019300 -0.970100 -0.242100
-35.559174 -60.650803 7.679688 -0.188300 -0.723800 -0.663800
-36.305573 -60.449402 5.429688 -0.297900 -0.742700 0.599700
-33.352081 -61.448700 5.354584 -0.158500 -0.856000 0.492100
-22.806885 -60.110298 7.013702 -0.159700 -0.105900 0.981500
-27.754272 -61.488602 5.447174 0.073700 -0.901700 0.425900
-32.578888 -61.570297 8.065674 -0.100700 -0.840500 -0.532300
-27.167389 -61.437698 8.162994 0.141500 -0.705400 -0.694500
-22.058899 -60.034698 8.503296 0.136800 -0.988000 -0.071800
-28.095093 -61.738701 4.195282 0.166100 -0.974400 -0.151500
-33.501801 -61.801903 3.681000 -0.148000 -0.984100 -0.097700
-36.772095 -60.841202 3.946899 -0.386500 -0.919700 -0.069500
-36.051300 -61.503502 9.342285 -0.282900 -0.893900 -0.347800
-32.718689 -62.320900 9.613098 -0.080800 -0.959500 -0.269800
-27.697388 -61.912903 9.014496 0.143100 -0.960500 -0.238600
-32.850800 -59.324104 17.765076 -0.114200 -0.949100 0.293600
-36.957397 -58.973297 16.256775 -0.593200 -0.722400 0.355300
-35.306274 -59.467499 16.306976 -0.145100 -0.915300 0.375800
-37.517700 -58.357803 15.669281 -0.699100 -0.656600 0.283200
-36.343384 -57.579201 19.894287 -0.108600 -0.980200 -0.165600
-37.248291 -57.048203 19.084686 -0.300600 -0.952600 -0.047300
-36.740997 -58.290001 18.176575 -0.446400 -0.797400 0.406100
-37.548492 -57.919998 17.529175 -0.660700 -0.699900 0.271400
-37.858185 -59.735703 12.511993 -0.720000 -0.517300 0.462500
-37.479095 -60.675903 12.463593 -0.569000 -0.684600 0.455600
14.436127 -41.057503 50.715591 -0.181300 -0.498900 0.847500
15.562927 -43.655998 53.728882 -0.524600 -0.496600 0.691500
17.693909 -44.848301 51.957993 0.307700 -0.910800 0.275400
20.424713 -33.222099 31.827087 0.958900 0.182300 -0.217400
20.389404 -37.152599 27.713776 0.825100 0.060400 -0.561800
25.374603 -37.910000 28.860779 0.789800 0.108700 -0.603700
26.311523 -37.946098 35.325897 0.729000 -0.635600 0.254100
14.782104 -44.017101 34.480194 0.875600 -0.482800 0.013500
40.259399 -0.683401 -27.634613 0.913700 -0.254400 0.316800
37.147705 -10.536901 -2.696411 0.980300 -0.137100 0.142000
30.468109 -16.989700 23.286285 0.921600 -0.340600 0.186400
28.998199 -16.692101 39.923401 0.923400 -0.372800 0.091800
-32.412201 -58.984100 29.506775 -0.232200 -0.627700 -0.743000
-27.612671 -58.358704 25.752777 -0.358200 -0.876400 -0.321800
-22.583282 -60.192902 4.115173 0.011600 -0.996900 -0.078400
-8.580780 -56.496101 49.739288 0.404100 -0.898900 -0.169500
-13.593292 -59.042999 51.910294 0.182300 -0.954900 -0.234400
20.733826 -41.652298 53.926392 0.627000 -0.697000 0.348000
23.391022 -37.436901 54.601593 0.801300 -0.501100 0.326900
29.076324 -34.350201 45.005890 0.631200 -0.763900 0.134300
27.668915 -36.483700 38.250885 0.581700 -0.801500 0.138300
21.738220 -43.001202 26.361481 0.574200 -0.374100 -0.728300
18.400726 -46.459900 26.597473 0.128900 -0.844700 -0.519600
16.160400 -45.618801 48.254578 0.060800 -0.992900 -0.102300
18.031525 -39.811600 55.988083 -0.316600 -0.085700 0.944700
22.698303 -34.472900 56.621689 0.139800 0.262900 0.954700
29.266205 -30.724501 45.269684 0.786200 0.617200 0.032200
27.718201 -33.509003 37.453979 0.783900 0.494500 -0.375500
18.874817 -39.412003 26.514282 0.704300 -0.296000 -0.645200
16.231720 -43.085602 26.443573 0.491800 -0.549400 -0.675400
12.732117 -43.637100 48.127289 0.125500 -0.952000 0.279300
16.157715 -37.493000 52.221390 0.128900 -0.172300 0.976600
19.102325 -32.888302 51.591690 -0.439400 0.637300 0.633100
21.370422 -29.061001 45.078674 0.851200 -0.524900 -0.000000
13.675323 -44.812302 30.435089 0.284500 -0.957700 0.042300
20.744415 -30.226700 48.866974 0.875400 -0.477300 0.076400
21.363312 -34.894100 25.253174 0.910200 -0.382700 0.158200
25.411499 -27.148001 21.013275 0.888300 -0.427700 0.167400
9.617401 -41.332100 64.676086 0.666000 -0.733700 0.134300
12.429413 -40.631901 56.560089 0.667100 -0.673700 0.318000
22.043823 -29.437801 -34.383301 -0.008500 -0.948800 -0.315800
19.679810 -33.569099 -15.508026 0.188900 -0.959600 -0.208700
-10.646179 -30.324100 -22.533722 0.292000 -0.921900 -0.254600
-6.347198 -32.666702 -21.776398 0.012000 -0.853200 -0.521500
1.866608 -31.864300 -20.743713 0.323500 -0.852700 -0.410200
7.246216 -28.487600 -22.388824 0.193100 -0.936000 -0.294300
20.667816 -28.144402 58.890091 0.836600 -0.541800 0.080600
-34.597290 -50.505203 88.874985 -0.046300 -0.593900 0.803200
-23.924683 -41.636902 94.510895 0.117900 -0.490100 0.863700
-43.803894 -54.798401 81.624191 -0.435200 -0.739000 0.514300
-39.194977 -57.089401 50.533691 -0.566300 -0.709800 -0.418900
-36.065887 -58.852798 51.589294 -0.081200 -0.858900 -0.505600
-32.249695 -58.791298 53.455582 0.165400 -0.827200 -0.537100
-24.958588 -60.348404 55.055588 -0.037800 -0.959700 -0.278300
-16.998871 -60.580399 55.897995 0.101800 -0.956600 -0.273000
-12.667786 -58.348602 46.903290 0.278100 -0.892400 -0.355300
-30.682892 -53.147598 45.357300 -0.590400 -0.761100 0.268700
-30.442383 -54.858398 45.481598 0.041700 -0.483700 -0.874200
-29.795898 -57.859001 47.657684 -0.089300 -0.658000 -0.747700
-25.886292 -59.095497 49.065796 0.049100 -0.523500 -0.850600
-20.659088 -59.769600 48.856598 -0.154200 -0.408100 -0.899800
-15.944489 -60.189598 47.259979 -0.159100 -0.560600 -0.812600
2.121216 -49.983803 52.938492 0.529600 -0.790600 0.307300
-5.111084 -55.619102 45.345276 0.318400 -0.892600 0.319200
0.405701 -55.060997 41.975800 0.539700 -0.766900 0.347200
5.250305 -52.056301 36.027679 0.699500 -0.712500 0.054700
15.930725 -36.071201 4.328400 0.419000 -0.835300 -0.355900
11.193909 -44.704700 5.066803 0.756900 -0.586300 -0.288800
-14.497284 -59.270599 18.466095 0.336800 -0.940000 0.055500
-18.889679 -60.502502 23.655090 0.137600 -0.990100 -0.026100
-11.016998 -59.006699 12.730774 0.583100 -0.783100 0.216200
-9.453094 -58.394203 3.970276 0.615600 -0.786200 -0.054300
26.190125 -23.421200 -52.828003 0.427200 -0.895200 0.127000
-19.028687 -58.646004 -1.737213 -0.074800 -0.993000 0.091700
-22.782898 -60.660103 -5.540497 0.227500 -0.937400 0.263600
-28.918579 -61.956299 -5.058899 -0.024700 -0.981800 0.188500
-33.090698 -60.774002 -5.312317 -0.399200 -0.915800 0.043300
7.239899 -49.130402 6.704376 0.674500 -0.714500 -0.185600
3.708008 -52.492500 7.734894 0.627900 -0.775900 -0.060900
-7.226685 -35.331402 -32.963501 -0.032500 -0.998000 -0.053800
-14.245972 -37.404800 -19.448700 0.126800 -0.405500 -0.905300
-21.272797 -47.563004 -19.757813 0.419700 -0.099300 -0.902200
-18.196472 -50.812103 -16.414215 0.591000 -0.120200 -0.797700
-8.660675 -49.798698 -10.355011 0.560300 -0.287600 -0.776700
3.787811 -45.121399 -4.117310 0.617700 -0.524600 -0.585900
15.156921 -43.008202 17.014374 0.678500 -0.720800 -0.141700
12.220001 -45.742001 36.731781 0.601200 -0.798800 0.021200
-29.866486 -53.723000 45.829895 0.787000 -0.616200 -0.029600
-31.063385 -54.568100 44.634583 -0.583700 -0.722400 0.370800
-29.804474 -56.015404 44.144501 -0.380500 -0.819800 0.427900
-27.428986 -57.471901 43.849884 -0.268000 -0.569200 0.777300
-28.591675 -55.241302 48.637177 0.580000 -0.231600 -0.781000
-23.372498 -58.464401 44.193878 -0.244000 -0.400500 0.883200
-24.486786 -56.758400 50.449677 0.180100 0.103200 -0.978200
-19.310089 -59.409103 45.744080 -0.131400 -0.658300 0.741200
-14.878296 -58.549400 47.824890 -0.515300 0.216300 -0.829300
-12.539490 -58.576401 50.030579 0.404300 -0.914300 0.022900
-18.223297 -57.147400 50.117493 -0.209900 0.284900 -0.935300
7.057800 -50.384499 39.913086 0.641500 -0.759100 0.110600
3.527405 -54.566597 34.057587 0.702900 -0.710600 -0.031400
-1.191193 -57.062599 30.404877 0.525600 -0.807800 -0.266900
-8.367584 -60.000404 27.927002 0.268800 -0.925600 -0.266500
-13.361572 -59.005600 25.147003 0.129400 -0.966500 -0.221800
0.755005 -52.457901 0.609985 0.671000 -0.688300 -0.275800
2.500824 -52.194000 15.106903 0.547900 -0.829700 0.107000
0.684418 -52.148300 21.617188 0.538500 -0.841000 -0.052700
-4.345795 -61.412102 36.743774 0.359800 -0.923800 0.131100
-10.040100 -56.749100 46.687775 0.339800 -0.934600 0.105500
-13.516296 -57.672600 44.346985 -0.021300 -0.965600 0.259100
-17.677399 -59.204803 40.062195 -0.107000 -0.888400 0.446400
-23.064484 -58.792404 38.733276 -0.264300 -0.885300 0.382600
-27.386780 -56.894104 38.833893 -0.260000 -0.830300 0.493000
-31.010773 -55.199699 40.698273 0.060300 -0.754500 0.653500
-33.745972 -54.534103 42.457489 0.331200 -0.683100 0.650900
-39.365295 -56.892799 43.572083 0.111900 -0.767800 0.630900
7.162628 -49.609398 15.467987 0.557800 -0.830000 0.004600
-20.639099 -55.823402 76.962387 0.132400 -0.979100 0.154200
-22.539398 -57.570000 68.258591 0.195500 -0.970100 0.143700
-24.091675 -61.754997 58.421188 0.008300 -0.994200 0.107100
-39.845886 -53.438400 74.831894 -0.257400 -0.957500 0.130000
-35.446991 -57.733803 65.624893 -0.384100 -0.914700 0.125600
-36.082489 -60.177803 55.340088 -0.340900 -0.939500 0.034600
-35.056976 -57.754601 50.693985 0.232100 -0.640200 -0.732400
-33.835480 -56.155899 50.087585 0.195200 -0.704300 -0.682500
-32.971100 -55.577797 49.354279 0.184400 -0.801700 -0.568600
-35.267792 -55.625603 49.229889 0.176300 -0.834500 -0.522100
-26.574982 -50.336601 46.354675 0.607000 -0.664800 -0.435400
-23.892975 -58.979004 22.036102 -0.306900 -0.940000 -0.149200
-40.056274 -58.669701 40.118500 0.128000 -0.928400 0.348900
-38.299072 -55.261803 44.635895 0.160300 -0.887600 0.431900
-31.485687 -52.815002 46.013275 -0.276600 -0.959800 0.047600
-30.778290 -53.199001 47.944702 -0.511500 -0.815200 -0.271800
-33.252777 -53.084099 45.278473 0.115400 -0.968600 -0.220200
-32.881775 -52.739700 43.699799 -0.082900 -0.977300 0.194800
-36.696991 -56.973000 38.921783 0.258500 -0.912200 0.317700
-7.284790 -56.223701 1.809174 0.130800 -0.989700 0.058900
-6.490295 -55.291397 7.673584 0.128900 -0.986800 0.098400
-7.268097 -55.575500 13.509003 0.218400 -0.975100 -0.037700
1.104706 -53.199902 46.509003 0.496900 -0.821700 0.278900
-4.101776 -54.573799 49.938873 0.466600 -0.861800 0.198900
-7.208893 -53.420502 60.940384 0.509900 -0.817800 0.266800
-9.056580 -59.219902 40.608673 0.110900 -0.886700 0.448800
-14.770691 -57.262299 46.657593 0.049000 -0.940000 -0.337600
-13.416901 -54.550003 47.887787 -0.990900 0.125000 -0.049800
-31.111481 -54.254303 42.119995 -0.498600 -0.836300 0.228200
-16.183075 -55.113899 45.460083 -0.481100 0.130600 0.866900
37.136627 -14.155300 -53.782898 0.540000 -0.759700 0.362400
-26.237274 -52.014099 44.145691 0.241700 -0.302000 0.922200
-19.981689 -54.565498 44.294800 -0.213700 0.027700 0.976500
-23.753998 -53.481400 43.856995 -0.048000 -0.084100 0.995300
-19.273773 -58.894600 52.027191 0.007300 -0.927100 -0.374900
-25.857391 -57.856499 52.183792 -0.167900 -0.901900 -0.397900
-30.031281 -56.131798 50.483185 -0.508600 -0.830200 -0.228400
-16.496185 -53.324902 49.954376 -0.237200 -0.106000 -0.965700
-20.955200 -52.488701 49.824677 0.099900 -0.258700 -0.960800
-24.681091 -51.310799 48.367401 0.374000 -0.452300 -0.809600
-39.597992 -61.062698 22.182098 0.545800 -0.303600 -0.781000
-38.171600 -58.709404 20.996094 0.459000 -0.801300 -0.383600
-34.351471 -57.800697 20.855103 -0.205700 -0.922200 -0.327400
-32.298981 -61.072197 20.891083 -0.014200 -0.462300 -0.886600
-33.647888 -60.520798 21.695679 -0.577700 0.037900 -0.815400
-37.732971 -62.446404 22.631775 -0.143300 -0.180800 -0.973000
-31.029877 -60.203697 -17.924408 -0.288100 -0.690700 -0.663300
-25.805481 -55.334297 -22.005707 0.207100 -0.362500 -0.908700
-28.882477 -64.520203 -11.368408 -0.135800 -0.989600 0.047800
-33.483276 -62.771400 -11.414825 -0.622000 -0.782700 -0.020600
-20.750580 -56.363304 -19.253601 0.466600 -0.301400 -0.831500
-26.597687 -62.389801 -17.085999 0.013900 -0.740300 -0.672100
-13.156281 -57.543602 -13.664124 0.597200 -0.353200 -0.720100
-7.078583 -57.264297 -5.132324 0.446000 -0.875900 -0.184400
-11.230988 -58.701500 -10.031219 0.586600 -0.764600 -0.266900
-19.480896 -62.410004 -13.698822 0.388900 -0.851100 -0.352700
-23.616272 -60.424904 12.260986 0.108500 -0.984500 0.137900
-31.463287 -59.743500 14.969177 0.027100 -0.933300 0.358100
-35.315796 -60.897903 13.074677 -0.098100 -0.856300 0.507100
-33.954376 -53.534500 76.191681 -0.255000 -0.916600 0.308100
-28.217682 -55.080101 77.168884 -0.146900 -0.941700 0.302800
-14.170685 -53.910500 69.067886 0.323900 -0.939500 0.111200
0.972412 -47.676399 59.194489 0.572200 -0.740400 0.352600
27.746613 -16.177601 53.693283 0.917800 -0.393300 0.055200
32.063629 -9.079600 29.628876 0.985300 -0.170600 -0.004200
34.162628 8.312899 -6.524109 0.819800 0.406200 0.403700
22.663208 23.786699 -11.821503 0.715100 0.631600 0.299500
-16.349182 -55.401100 65.604782 0.336900 -0.904000 0.263100
-29.922272 -58.515198 67.085388 -0.053800 -0.988600 0.140700
-39.513885 -54.998299 64.754395 -0.480600 -0.869800 0.111800
-29.994873 -58.056099 25.654388 0.755400 -0.653900 0.041200
-33.017395 -57.726601 28.845703 0.328700 -0.938700 0.104400
-36.860199 -60.535500 29.382202 0.289800 -0.809000 0.511400
-38.024780 -63.606598 26.183990 0.402100 -0.868000 0.291300
-32.872101 -57.739799 20.985382 0.130700 -0.884700 -0.447400
-37.443085 -63.365402 23.223389 0.245900 -0.838500 -0.486300
-35.884888 -59.038704 35.132874 0.233600 -0.912400 0.336000
-30.738983 -60.995201 21.131683 0.537100 -0.396100 -0.744800
-33.590698 -62.806297 24.026703 0.231800 -0.971600 -0.046800
-34.296082 -62.130402 26.979675 0.131100 -0.920200 0.368900
-28.365875 -60.341499 25.916595 0.986800 -0.125800 0.101900
-32.802490 -60.978203 29.173401 0.173200 -0.474300 0.863100
-40.823975 -61.734497 30.828583 0.113900 -0.860500 0.496500
-29.751282 -59.738304 28.090576 0.682800 0.098800 0.723900
-29.373993 -60.343300 22.761688 0.891200 -0.071000 -0.448000
-6.041199 -57.410103 42.904785 0.273800 -0.844200 0.460800
-22.314789 -59.889900 36.409302 -0.144300 -0.968700 0.201800
-24.020172 -59.122704 43.106293 -0.265000 -0.938300 0.222300
-26.206390 -61.301399 30.362793 -0.207500 -0.978200 -0.002700
-38.135986 -56.223000 83.842789 -0.231800 -0.836600 0.496300
-5.451477 -57.513000 20.886780 0.367100 -0.922300 -0.120500
-10.461273 -57.236702 19.174774 0.252800 -0.954800 -0.156100
-18.621185 -59.671799 15.299774 -0.119600 -0.992400 0.028500
-9.891876 -40.190399 -17.957916 0.256400 -0.466500 -0.846500
7.278900 -28.300600 -34.421112 0.596800 -0.799200 -0.071900
-2.921082 -34.962700 -32.779114 0.288300 -0.957400 0.016000
-0.875885 -39.529202 -14.427917 0.477300 -0.627400 -0.615300
-36.597382 -59.889801 2.201599 -0.422800 -0.858500 -0.290200
-15.468201 -59.885704 -8.584625 0.319700 -0.941500 0.106300
-21.836884 -63.131401 -10.553497 0.239700 -0.920200 0.309500
-33.523499 -60.996002 1.580780 -0.199500 -0.963200 -0.180400
-27.406281 -60.616600 2.179077 0.190500 -0.975900 -0.106700
-11.250488 -58.719398 -2.269409 0.567300 -0.792900 -0.222600
-32.124481 -58.197098 36.413086 -0.124900 -0.942700 0.309500
-26.961975 -50.509201 45.298492 0.605100 -0.678300 0.416800
-34.518677 -55.352203 47.855499 0.214900 -0.898800 -0.382100
-28.127899 -59.332199 35.082001 -0.218900 -0.938200 0.268100
-37.853699 -55.276703 46.324493 -0.029900 -0.976400 -0.214000
-34.776184 -59.334099 6.650696 0.074100 0.089000 -0.993300
-2.880096 -56.832703 8.637390 0.151400 -0.987500 0.044200
-26.487671 -60.496201 7.821289 0.245600 -0.028600 -0.969000
-31.880798 -60.459404 6.230774 0.055900 0.117100 -0.991500
-35.158386 -58.146698 19.048279 -0.179000 -0.907000 0.381200
-41.310272 -65.719101 22.593475 0.136000 -0.829300 -0.542000
-42.459778 -65.929504 26.485687 -0.013400 -0.950100 0.311500
-30.294678 -61.818199 26.758698 0.392100 -0.886500 0.245500
-36.181671 -61.977203 11.453278 -0.307500 -0.930400 0.199600
-30.390472 -56.756401 51.558884 -0.153600 -0.722700 -0.673800
-28.173187 -57.622299 42.878174 -0.593200 -0.786800 0.170400
-19.186676 -59.472603 44.657501 0.116000 -0.991500 0.058700
-14.936798 -53.968704 49.252502 -0.561200 0.050800 -0.826100
-20.789093 -60.290398 52.649887 -0.042800 -0.816300 -0.576000
-27.253876 -59.857002 52.775192 -0.140900 -0.831100 -0.538000
-12.052582 -62.653702 33.792297 0.058300 -0.997700 0.033500
-18.927673 -62.304298 31.561676 -0.081800 -0.994100 -0.071400
-1.289886 -49.619202 73.012695 0.510700 -0.857800 0.058100
22.163208 -25.726400 69.957581 0.844400 -0.515600 0.145500
-0.614899 -57.949203 39.465576 0.567300 -0.751400 0.337100
-14.797882 -60.448601 37.802673 -0.039800 -0.949500 0.311300
-31.540100 -58.898804 32.906097 -0.068100 -0.943500 0.324400
-40.340271 -59.911201 36.075287 0.015900 -0.944800 0.327100
-39.813690 -57.634201 53.886490 -0.689400 -0.724000 0.023100
-38.034790 -56.513504 48.991974 -0.197800 -0.794800 -0.573800
-29.900696 -61.398300 25.069092 0.471300 -0.873700 -0.120800
-31.770386 -57.923599 52.496780 0.110500 -0.727100 -0.677600
-4.063873 -57.685303 2.123383 0.201300 -0.979400 -0.018200
-27.277100 -61.886604 10.405090 0.205000 -0.960000 0.190500
7.352417 -37.037498 -7.453003 0.450800 -0.768300 -0.454300
26.552826 -31.538799 -3.043121 0.681600 -0.731600 -0.011000
-10.316101 -58.830200 55.556686 0.533100 -0.842000 0.082800
33.264008 26.537798 45.708984 0.903200 0.417200 -0.100500
34.471527 7.318800 45.270691 0.993900 -0.085200 -0.069800
10.360016 -47.136600 32.129395 0.649500 -0.760300 0.002300
6.031799 -49.776501 23.581696 0.443700 -0.888600 -0.116300
2.095825 -49.648102 -2.134521 0.676600 -0.546100 -0.493900
-3.197479 -56.483902 14.782074 0.268100 -0.963400 0.000300
-32.694885 -62.595100 11.883179 -0.031200 -0.942700 0.332300
-31.758972 -60.881004 56.818390 -0.138600 -0.990300 0.000400
-30.371490 -56.879601 84.724289 0.017700 -0.917000 0.398600
8.543518 -16.125801 99.680984 0.359800 -0.135800 0.923100
19.917725 15.675299 91.201889 0.485600 0.344000 0.803600
32.480927 28.144499 69.087189 0.740700 0.599700 0.302800
25.477905 19.676100 10.988190 0.790600 0.535500 -0.297000
29.851715 31.364698 -27.191925 0.375900 0.615000 0.693200
14.547699 -20.319901 -39.714722 -0.026100 -0.979800 -0.198200
-15.332397 -60.258598 10.692291 -0.227400 -0.973500 -0.022700
31.998901 6.263199 15.551575 0.957200 0.275400 0.089400
10.872009 -46.673000 15.876373 0.660400 -0.745000 -0.094000
32.574524 -25.229900 -30.510498 0.713100 -0.696500 -0.080500
13.343903 -29.552900 93.240692 0.576600 -0.495000 0.649900
37.588013 8.744598 68.694290 0.976400 -0.039800 0.212200
-16.351776 -61.957199 59.548584 0.164900 -0.907000 0.387500
28.047119 0.906500 86.782990 0.776100 -0.081500 0.625300
44.210022 19.378401 -27.546722 0.552400 0.168700 0.816300
-15.493500 -52.884499 85.241592 0.283800 -0.796400 0.534100
52.005524 11.212297 -35.153107 0.520300 -0.447500 0.727300
60.885620 27.561998 -32.092926 0.379000 0.107200 0.919200
-40.582092 -60.822899 33.451874 0.049400 -0.942800 0.329800
-35.843781 -59.489204 31.189392 0.190500 -0.956800 0.219500
19.197418 -42.953499 53.381683 0.571300 -0.738500 0.358100
17.457428 -44.821899 48.859375 0.810400 -0.457100 -0.366600
22.006317 -39.598999 37.909485 0.363600 -0.923400 0.123200
25.054321 -38.592800 41.139282 0.678300 -0.734000 -0.035300
26.181122 -37.250000 46.245483 0.772500 -0.611800 0.170300
24.220825 -37.009602 51.240082 0.755600 -0.616000 0.222900
14.741425 -44.235298 32.177002 0.509300 -0.749400 0.423200
18.674225 -45.364502 30.158203 0.248400 -0.865900 0.434300
106.867706 2.607698 -88.577301 0.785100 -0.594800 0.172700
47.807129 -1.867201 -48.056519 0.529300 -0.647100 0.548800
10.687927 81.577698 -101.383209 0.071100 0.997500 -0.000000
35.204010 78.477005 -101.383209 0.283800 0.958900 0.000000
-28.503601 -59.531601 54.502380 -0.171800 -0.931200 -0.321400
-34.134888 -58.851501 52.268295 0.236600 -0.821400 -0.519000
-37.607483 -58.000504 50.807281 -0.246700 -0.852300 -0.461200
-33.920685 -60.529404 56.079285 -0.132800 -0.991100 0.003400
-28.079071 -61.213600 57.593887 -0.138800 -0.990100 0.020000
-20.948090 -61.362801 58.862289 0.022100 -0.970200 0.241400
45.510529 59.510002 -46.202026 0.266300 0.746400 0.609900
80.891113 36.087898 -48.537506 0.610500 0.418600 0.672300
88.628815 16.078897 -52.093811 0.644600 -0.147500 0.750100
82.199219 -1.710501 -58.048523 0.459000 -0.536900 0.707800
62.804810 -16.512701 -63.720520 0.194500 -0.569000 0.799000
22.835510 -31.099899 -64.607300 0.284500 -0.695500 0.659800
16.483002 -33.557701 -64.714325 -0.082800 -0.757200 0.647900
10.130524 -30.951702 -64.821198 -0.106800 -0.810100 0.576500
6.584320 -32.349998 -66.741699 -0.104200 -0.856600 0.505300
4.428009 -32.788002 -68.895599 -0.281200 -0.835200 0.472700
1.853516 -33.286201 -71.427399 -0.573400 -0.648500 0.500600
14.966827 -20.339800 -44.250000 0.021200 -0.999300 0.030700
8.310425 -25.979200 -41.641113 0.599800 -0.797700 -0.061600
-1.065887 -31.641701 -40.227905 0.253600 -0.933200 -0.254600
-5.143372 -31.648800 -40.311218 -0.093300 -0.920900 -0.378500
57.299713 63.288704 -69.321808 0.445500 0.833500 0.326900
92.811401 46.657402 -70.806122 0.588100 0.666200 0.458500
107.897125 22.834200 -71.345215 0.808600 0.059000 0.585300
98.436401 0.686699 -72.273315 0.712500 -0.548100 0.438100
70.676727 -26.681601 -71.867126 0.441800 -0.791500 0.422200
32.006226 -39.956802 -73.181824 0.219000 -0.794000 0.567100
17.783600 -40.682999 -73.528412 -0.117000 -0.834500 0.538400
9.192322 -38.653503 -74.652313 -0.256000 -0.861000 0.439400
6.011810 -38.443100 -75.663513 -0.101500 -0.911300 0.399000
3.722504 -38.716301 -76.416321 -0.034900 -0.903300 0.427500
1.718323 -39.020302 -77.135620 -0.016100 -0.888000 0.459500
2.084320 -41.950203 -101.383209 0.087900 -0.996100 0.001200
63.660126 64.742699 -101.383209 0.431000 0.902300 -0.008200
101.903900 46.632500 -101.383209 0.637200 0.770700 -0.000000
117.950226 24.690798 -101.383209 0.996500 0.083100 -0.000000
106.867706 2.607698 -101.383209 0.779000 -0.627100 -0.000000
70.676727 -26.681601 -101.383209 0.543800 -0.839200 0.000000
36.106201 -44.222401 -101.383209 0.366900 -0.930200 0.000000
20.029510 -48.877998 -101.383209 -0.199300 -0.979900 0.000000
11.232300 -41.717800 -101.383209 -0.382500 -0.924000 0.000000
7.294708 -41.315399 -101.383209 0.009300 -1.000000 0.000000
4.510620 -41.652100 -101.383209 0.121100 -0.992600 -0.000200
15.331512 -44.436501 27.547699 -0.219900 -0.875200 -0.430900
33.486023 -2.480900 12.211700 0.980000 0.054100 0.191600
34.001923 -14.913601 10.563080 0.958400 -0.228100 0.171600
34.101807 1.475399 2.856476 0.954600 0.265000 0.136100
15.316803 19.083700 90.740891 0.303800 0.483000 0.821200
24.180420 36.751099 68.601593 0.662600 0.669000 0.336700
27.325226 30.986799 68.922684 0.665400 0.653400 0.361000
26.396820 34.471199 42.211578 0.764400 0.624200 -0.161700
29.830414 30.504499 43.960297 0.781100 0.610400 -0.131600
17.452728 22.847498 9.622498 0.250000 0.867900 -0.429200
21.912109 22.853598 10.189575 0.358500 0.864900 -0.351400
12.941101 28.747599 -13.746613 -0.049300 0.905900 0.420500
19.035828 28.952700 -13.044525 0.412000 0.852500 0.321700
6.908203 36.043396 -24.185303 0.058100 0.733600 0.677100
20.214905 33.652901 -25.673004 0.275200 0.738900 0.615000
9.299927 51.693901 -36.414398 0.042900 0.614000 0.788200
23.113525 45.995399 -36.441925 0.197300 0.525200 0.827800
11.230316 63.471397 -48.145111 0.045200 0.772900 0.632900
30.339417 62.264999 -45.941498 0.127700 0.710800 0.691700
10.687927 81.577698 -71.867126 -0.036200 0.949800 0.310600
35.204010 78.477005 -71.867126 0.321100 0.905500 0.277400
35.204010 78.477005 -88.577301 0.304900 0.952100 0.021400
10.687927 81.577698 -88.577301 0.051100 0.998400 0.022600
20.442200 -40.769901 51.529694 0.675900 -0.472300 -0.565800
26.463318 -34.584499 51.729187 0.704100 -0.674800 0.221200
24.936615 -31.853802 54.240189 0.419200 0.601800 0.679800
-35.572174 -59.560600 6.183502 -0.095300 -0.070300 0.993000
-27.278687 -60.687698 6.246277 -0.051700 -0.141900 0.988500
-32.648071 -60.519302 6.325073 -0.051000 -0.112100 0.992400
-15.358398 -42.306503 46.728577 -0.398500 -0.916400 0.037100
-11.894684 -44.325302 10.741180 -0.224600 -0.074200 0.971600
-20.986084 -38.212502 9.196777 0.170200 0.007700 -0.985400
-14.657288 -42.456299 10.245300 -0.212600 -0.074100 0.974300
-18.544281 -39.858200 9.604584 0.170200 0.031000 -0.984900
-20.614777 -60.336800 9.003387 -0.273500 -0.612800 0.741400
-39.179596 -53.995003 5.191193 -0.017200 -0.510300 -0.859800
-39.124878 -50.604000 5.196381 0.189800 0.507300 -0.840600
-38.692871 -53.874603 5.234283 0.390400 -0.462400 -0.796100
-39.645782 -50.661400 5.150299 -0.154500 0.500300 -0.851900
-40.194794 -51.103401 5.101685 -0.339600 0.357200 -0.870100
-37.861877 -52.934303 5.307800 0.654000 -0.095800 -0.750400
-40.476685 -51.601700 5.076782 -0.493500 0.031600 -0.869200
-38.755371 -50.849300 5.228973 0.498200 0.318500 -0.806500
-39.583191 -53.686699 5.155579 -0.341700 -0.293800 -0.892700
-39.293701 -54.303703 5.580688 -0.145000 -0.958300 -0.246300
-39.771973 -53.966202 5.538483 -0.719500 -0.623200 -0.306500
-38.696991 -54.133102 5.633484 0.524500 -0.841300 -0.131100
-37.648590 -52.979500 5.726288 0.973700 -0.193200 -0.121100
-38.650391 -50.586300 5.638000 0.745100 0.631800 -0.213700
-40.773682 -51.573101 5.450073 -0.939700 0.055700 -0.337400
-40.410675 -50.971298 5.482300 -0.702100 0.641200 -0.309700
-39.725281 -50.419502 5.542877 -0.370700 0.881100 -0.293600
-39.089691 -50.320702 5.599091 0.220300 0.931600 -0.289100
-39.655975 -53.669601 9.728790 -0.148400 -0.970400 0.190700
-38.255371 -52.539398 9.878082 0.958100 -0.213100 0.191600
-40.959198 -51.215401 9.123688 -0.975400 0.220500 -0.005300
-39.523499 -50.150703 9.280701 0.247700 0.965700 0.078100
-38.714478 -55.346100 5.300781 -0.387200 -0.131300 -0.912600
-38.614990 -54.798904 5.291199 -0.361500 0.174200 -0.916000
-38.210388 -54.195503 5.322388 -0.253200 0.343100 -0.904500
-37.743591 -53.897804 5.375580 0.113400 0.529400 -0.840800
-38.407288 -55.818199 5.364594 -0.205800 -0.420100 -0.883800
-35.724274 -55.006004 5.708984 0.467900 0.351500 -0.810900
-35.478271 -55.436501 5.762390 0.621500 0.077300 -0.779600
-36.388000 -56.926399 5.697998 0.124300 -0.588100 -0.799200
-35.516571 -56.025299 5.782379 0.621500 -0.219400 -0.752100
-35.921173 -56.628700 5.751190 0.490000 -0.411300 -0.768600
-39.194672 -54.976700 10.052979 -0.977200 -0.199600 0.072400
-38.160492 -53.434101 10.132690 -0.151000 0.988000 0.030800
-36.745392 -56.370697 10.459595 0.242600 -0.938100 0.247200
-35.958588 -55.094604 10.515778 0.955300 0.202400 0.215600
-39.059998 -55.405304 5.656799 -0.912700 -0.187600 -0.363000
-38.722595 -55.963501 5.728577 -0.631900 -0.719600 -0.287800
-38.916077 -54.735603 5.648193 -0.859900 0.368700 -0.353100
-38.410980 -53.982300 5.687073 -0.652700 0.672800 -0.348200
-37.847900 -53.597298 5.750183 -0.026200 0.945500 -0.324500
-35.530792 -54.842201 6.131592 0.722300 0.658500 -0.211300
-36.405579 -57.208397 6.109985 0.069900 -0.982300 -0.173800
-35.842499 -56.823402 6.173096 0.707100 -0.700600 -0.096200
-35.337372 -56.070000 6.211975 0.933600 -0.348300 -0.084600
-35.263184 -55.352898 6.191498 0.972400 0.179100 -0.149700
-40.177887 -45.496498 4.681000 -0.473000 -0.314200 -0.823100
-38.780975 -45.590801 4.942200 0.619700 -0.432000 -0.655300
-39.255798 -45.810902 4.872589 0.164800 -0.652200 -0.739900
-39.324890 -42.360100 4.597290 -0.345500 0.439300 -0.829200
-37.950500 -42.536903 4.860687 0.754400 0.057200 -0.654000
-38.268097 -42.179298 4.775696 0.314000 0.562600 -0.764800
-40.707672 -45.170403 8.898193 -0.844000 -0.531300 0.073000
-39.209900 -45.274700 9.114594 0.586200 -0.782200 0.211000
-38.306976 -42.618698 9.127594 0.983800 -0.130100 0.123500
-39.830475 -41.898701 8.881073 -0.530800 0.842800 -0.088500
-38.355682 -42.089100 9.097900 0.708800 0.700900 0.080100
-40.499176 -45.682701 5.237701 -0.822600 -0.505200 -0.260900
-39.331390 -46.052101 5.418793 0.059700 -0.991900 -0.112400
-38.743500 -45.804901 5.491302 0.733800 -0.678000 -0.043300
-39.538391 -42.099403 5.218903 -0.616100 0.744100 -0.258400
-38.218872 -41.903099 5.397003 0.322500 0.931600 -0.167500
-37.807983 -42.315903 5.472900 0.961600 0.263800 -0.075800
-40.451996 -46.963501 4.829285 -0.332300 0.305700 -0.892300
-40.010498 -46.632103 4.877380 -0.108300 0.478700 -0.871300
-39.397888 -46.507500 4.958679 0.139100 0.497600 -0.856200
-38.981873 -46.664501 5.024292 0.603800 0.256400 -0.754800
-40.665497 -47.570702 4.825287 -0.387500 0.057700 -0.920100
-38.929474 -49.150200 5.138977 0.663300 -0.171900 -0.728400
-40.767273 -49.524101 4.895203 -0.369100 -0.128500 -0.920400
-40.622589 -50.053600 5.006592 -0.254500 -0.439000 -0.861700
-39.593994 -50.085899 5.153473 0.382300 -0.538100 -0.751200
-40.206482 -50.210503 5.072296 0.091300 -0.560000 -0.823400
-40.935272 -46.516300 8.924103 -0.743300 0.668600 -0.021200
-39.369385 -46.197800 9.131897 0.640500 0.756900 0.129700
-41.103180 -49.738403 9.039490 -0.654200 -0.736600 0.171700
-39.532898 -49.335098 9.244202 0.761200 -0.593500 0.261500
-40.696289 -46.764503 5.256500 -0.733000 0.591200 -0.336400
-40.950073 -47.464100 5.182800 -0.917600 0.179700 -0.354600
-40.146393 -46.376999 5.317596 -0.341200 0.891600 -0.297700
-39.372192 -46.224300 5.352386 0.089100 0.946600 -0.309700
-38.851379 -46.394001 5.433380 0.790300 0.575300 -0.211100
-41.066193 -49.692902 5.262573 -0.914300 -0.168900 -0.368200
-38.781372 -49.223301 5.633484 0.978100 -0.199300 -0.060400
-40.880096 -50.293503 5.382874 -0.635700 -0.710900 -0.300800
-40.359283 -50.463203 5.463898 -0.034600 -0.983100 -0.179900
-39.594574 -50.307602 5.565277 0.424800 -0.900300 -0.094400
-39.039886 -49.827202 5.622986 0.798600 -0.587700 -0.129900
-23.814301 -56.611603 7.475189 0.063900 -0.679000 -0.731400
-24.459900 -55.861198 7.399078 -0.481200 -0.213300 -0.850300
-24.437500 -55.333801 7.391388 -0.455300 0.298200 -0.838900
-21.919281 -53.426300 7.598083 -0.055800 0.607500 -0.792400
-21.227997 -54.652603 7.687500 0.708500 -0.276600 -0.649200
-21.465271 -53.592804 7.644775 0.580700 0.381500 -0.719200
-24.295074 -56.298302 11.699890 -0.212400 -0.959500 0.185200
-24.951691 -54.939201 11.548401 -0.956900 0.288600 -0.032400
-21.609100 -54.255302 11.991577 0.970500 -0.174700 0.166400
-22.336273 -52.949902 11.832275 0.211800 0.977300 -0.000000
-24.001801 -56.888702 8.054688 -0.120200 -0.983000 -0.138800
-24.779083 -55.937004 7.903687 -0.899000 -0.341200 -0.274500
-24.771301 -55.295700 7.877075 -0.859100 0.403200 -0.315300
-21.059998 -54.651100 8.374176 0.947700 -0.319100 0.008500
-21.372772 -53.346001 8.273590 0.777500 0.622200 -0.091800
-21.906891 -53.116901 8.188202 -0.073900 0.966000 -0.247700
-25.091675 -57.397202 7.452087 0.596700 -0.325400 -0.733600
-25.366272 -55.913002 7.349182 0.200300 0.530500 -0.823700
-25.065979 -56.242699 7.405884 0.602200 0.183000 -0.777100
-24.951599 -56.861099 7.448792 0.673000 -0.051900 -0.737800
-25.571198 -57.823700 7.402679 0.395800 -0.474500 -0.786300
-27.332794 -58.649597 7.189301 0.219900 -0.528700 -0.819800
-27.675995 -56.794304 7.060577 -0.216400 0.425600 -0.878600
-27.890381 -58.702103 7.180695 -0.115700 -0.533300 -0.838000
-28.190674 -58.372498 7.123993 -0.352900 -0.258300 -0.899300
-28.305084 -57.754097 7.081177 -0.448900 0.026500 -0.893200
-25.442383 -57.037704 11.569580 0.869300 -0.426500 0.249700
-25.734894 -55.456802 11.459900 0.466700 0.881500 0.072000
-28.141998 -56.370598 11.158875 -0.521500 0.848400 -0.090400
-28.348175 -58.400002 11.217377 -0.484800 -0.851300 0.200600
-28.564178 -56.783302 11.117096 -0.929200 0.367300 -0.041500
-25.458679 -57.986900 7.828003 0.558600 -0.822800 -0.104200
-24.924774 -57.477501 7.949585 0.866400 -0.495100 -0.065500
-24.773499 -56.819298 7.942596 0.997300 -0.017700 -0.071100
-24.906891 -56.050102 7.822388 0.903000 0.393600 -0.172100
-25.258087 -55.627403 7.754486 0.301700 0.906900 -0.294100
-27.468689 -58.929199 7.584381 0.242800 -0.954700 -0.172000
-27.906586 -56.610199 7.490387 -0.503000 0.804100 -0.316800
-28.107178 -58.969604 7.563873 -0.362400 -0.896600 -0.254300
-28.458496 -58.546997 7.496002 -0.843500 -0.433800 -0.316700
-28.601288 -57.774902 7.442474 -0.944800 0.029800 -0.326400
-28.366272 -57.077400 7.445587 -0.779600 0.484700 -0.396700
-33.433472 -58.933304 6.202484 0.221800 -0.545000 -0.808600
-32.462585 -57.485001 6.277283 0.636400 0.174100 -0.751400
-32.562073 -58.032204 6.286774 0.606500 -0.240900 -0.757700
-32.966675 -58.635597 6.255676 0.492200 -0.405700 -0.770200
-33.983490 -58.823204 6.119995 -0.110100 -0.485200 -0.867500
-34.239075 -56.014801 5.962585 0.346200 0.434100 -0.831700
-35.759979 -57.353004 5.805176 -0.395300 -0.235100 -0.887900
-34.727783 -55.946304 5.890503 0.036600 0.474500 -0.879500
-35.660492 -56.805801 5.795685 -0.366200 0.170300 -0.914800
-35.255890 -56.202301 5.826874 -0.240000 0.365800 -0.899200
-34.017487 -58.509300 10.937683 0.134900 -0.956500 0.258500
-32.983276 -56.966698 11.017395 0.955200 0.217400 0.200600
-34.888000 -55.608299 10.689392 0.346100 0.937700 0.029100
-36.156586 -56.783401 10.560699 -0.993500 -0.103000 0.049000
-35.275391 -55.571503 10.632996 -0.384600 0.922800 -0.023200
-34.091583 -59.109200 6.519379 -0.374200 -0.894400 -0.245000
-33.451080 -59.215302 6.614502 0.224300 -0.959400 -0.170900
-32.888000 -58.830299 6.677582 0.710900 -0.697900 -0.086600
-32.382874 -58.076904 6.716492 0.916100 -0.392600 -0.081600
-32.238892 -57.407204 6.707886 0.944900 0.286600 -0.158500
-34.252777 -55.710304 6.349792 0.400000 0.876800 -0.266800
-36.105499 -57.412201 6.161285 -0.881800 -0.334700 -0.332100
-35.961487 -56.742500 6.152679 -0.861100 0.364100 -0.354800
-35.456482 -55.989204 6.191589 -0.620000 0.707000 -0.340300
-34.823486 -55.651604 6.266602 -0.137600 0.933300 -0.331700
-32.018097 -58.859497 6.414093 -0.262200 -0.343900 -0.901700
-32.084473 -58.363304 6.362701 -0.372400 0.055700 -0.926400
-31.528381 -57.236404 6.389282 -0.138800 0.442800 -0.885800
-31.590973 -59.115501 6.520294 0.053500 -0.562300 -0.825200
-29.304688 -57.268799 6.842773 0.304800 0.449800 -0.839500
-28.947388 -57.517204 6.934174 0.590100 0.235400 -0.772200
-29.367279 -59.147903 6.973785 0.396600 -0.573100 -0.717100
-28.811096 -58.021004 7.000397 0.704100 -0.082900 -0.705300
-29.015198 -58.697304 7.010681 0.641000 -0.308900 -0.702600
-32.595581 -58.465500 10.934387 -0.877100 -0.475600 0.066700
-32.078400 -56.735199 10.932800 -0.565600 0.821900 -0.067800
-29.775482 -58.812004 11.033295 0.535800 -0.805900 0.252100
-29.331696 -57.073502 11.020996 0.777800 0.605600 0.168400
-32.349792 -59.020500 6.766388 -0.767600 -0.535400 -0.352400
-31.868988 -59.334404 6.887878 -0.251900 -0.940800 -0.226700
-32.410278 -58.403404 6.707001 -0.916100 0.137200 -0.376800
-31.738495 -56.994102 6.735474 -0.481300 0.795000 -0.369200
-29.194672 -57.009201 7.252594 0.370000 0.886600 -0.277700
-29.325287 -59.349602 7.404999 0.449200 -0.887800 -0.100400
-28.908173 -58.784500 7.446381 0.895300 -0.443900 -0.037200
-28.653473 -57.940201 7.433502 0.997000 -0.047900 -0.060300
-28.793488 -57.314499 7.357300 0.840000 0.510700 -0.183300
-41.241089 -48.119003 5.625183 -0.571100 -0.274100 0.773800
-40.915771 -48.304600 5.679596 -0.226500 -0.504000 0.833500
-40.403900 -48.268898 5.757202 0.039000 -0.500400 0.864900
-40.012482 -48.033203 5.811493 0.355700 -0.307700 0.882500
-41.317474 -47.638298 5.601898 -0.660200 0.060000 0.748700
-39.517181 -45.846298 5.834503 0.405400 -0.012800 0.914000
-39.604584 -45.435902 5.811188 0.305000 0.274000 0.912100
-40.822174 -45.451401 5.624878 -0.601800 0.332500 0.726200
-39.918884 -45.180099 5.756775 0.008200 0.520400 0.853900
-40.430786 -45.215801 5.679199 -0.290500 0.518000 0.804500
-40.411499 -47.792801 1.941376 -0.674800 -0.632700 -0.379900
-39.090576 -47.700500 2.141693 0.739800 -0.672700 0.009700
-39.970978 -44.987503 1.941101 -0.586100 0.794500 -0.159100
-38.564575 -44.889099 1.900299 0.749300 0.649000 0.131600
-41.368774 -48.312000 5.267395 -0.796200 -0.598700 0.087500
-41.472473 -47.764702 5.238281 -0.999200 0.000100 0.041000
-40.959198 -48.521103 5.335175 -0.226100 -0.961500 0.156200
-40.320099 -48.476402 5.432098 0.229600 -0.946200 0.228000
-39.834991 -48.204903 5.499878 0.711500 -0.609800 0.349100
-39.253296 -45.708603 5.528687 0.900400 0.020900 0.434500
-40.890900 -45.268402 5.266998 -0.803300 0.585200 0.110800
-40.405792 -44.996803 5.334900 -0.306600 0.923100 0.231900
-39.766693 -44.952202 5.431702 0.193300 0.917000 0.348900
-39.369598 -45.241402 5.499573 0.709300 0.532700 0.461500
-41.124298 -48.933701 5.705200 -0.592800 0.291300 0.750800
-39.864990 -48.510803 5.888000 0.304200 0.368200 0.878500
-40.245575 -48.430603 5.827789 -0.173100 0.537600 0.825200
-40.770294 -48.606800 5.751587 -0.393200 0.476600 0.786300
-41.250580 -49.461502 5.698578 -0.659300 0.031800 0.751200
-39.570099 -50.561401 5.982788 0.401500 -0.007600 0.915800
-40.955688 -51.512001 5.793396 -0.560900 -0.346200 0.752000
-39.700897 -51.021301 5.973877 0.340000 -0.243200 0.908500
-40.575073 -51.592201 5.853699 -0.083300 -0.518900 0.850800
-40.050385 -51.416100 5.929901 0.175800 -0.446300 0.877400
-40.295593 -48.480598 1.984802 -0.764400 0.603200 -0.227700
-38.941589 -48.026001 2.181396 0.524500 0.842100 0.125500
-38.627777 -50.181000 2.281586 0.980100 -0.046400 0.193100
-40.118378 -51.192001 2.077576 -0.472400 -0.811100 -0.344800
-38.768982 -50.666000 2.271698 0.779400 -0.625000 0.043700
-41.398682 -49.408401 5.327698 -0.998000 0.049300 0.039000
-41.237579 -48.800499 5.337677 -0.855700 0.507800 0.099400
-40.794281 -48.414299 5.396301 -0.504600 0.845400 0.175000
-40.139191 -48.194302 5.491394 -0.122600 0.952100 0.280200
-39.665497 -48.272598 5.565887 0.598200 0.673400 0.434500
-39.312073 -50.606499 5.676483 0.904500 -0.076600 0.419500
-41.045288 -51.742302 5.438293 -0.703400 -0.703400 0.102200
-40.571594 -51.820602 5.512787 0.037300 -0.978500 0.202800
-39.916473 -51.600601 5.607880 0.470600 -0.842900 0.260800
-39.478180 -51.137001 5.663879 0.786700 -0.495600 0.368200
-39.034485 -56.127403 6.178375 -0.656300 -0.040200 0.753400
-38.070892 -54.680099 6.291077 -0.171500 0.575300 0.799800
-38.508698 -54.995804 6.231598 -0.520300 0.393600 0.757900
-38.910187 -55.598801 6.184692 -0.617200 0.248800 0.746400
-38.789185 -56.556602 6.226379 -0.471300 -0.364800 0.803000
-36.330780 -55.598999 6.580078 0.216100 0.385400 0.897100
-37.048981 -57.475502 6.515381 -0.084800 -0.548800 0.831600
-36.137695 -55.992798 6.619202 0.375900 0.088900 0.922400
-36.611298 -57.159798 6.574799 0.266600 -0.357600 0.895000
-36.209778 -56.556801 6.621796 0.378200 -0.189200 0.906200
-38.191284 -55.758499 2.161896 -0.922000 -0.131900 -0.364000
-37.155273 -54.202400 2.283081 -0.189700 0.981500 -0.026200
-35.322601 -55.164497 2.587280 0.687000 0.702100 0.187100
-36.103394 -57.176201 2.516174 0.290100 -0.944400 -0.154700
-35.122375 -55.582802 2.628082 0.987400 0.003800 0.158200
-38.964172 -56.722099 5.820282 -0.712100 -0.694900 0.100300
-39.231201 -56.212898 5.767090 -0.988900 -0.134500 0.063300
-39.059174 -55.564499 5.777802 -0.913500 0.403400 0.053200
-38.557892 -54.811600 5.836395 -0.736400 0.668900 0.101900
-38.028198 -54.406097 5.907776 -0.143700 0.949200 0.280100
-36.029785 -55.435104 6.238983 0.625500 0.648600 0.433800
-36.965790 -57.751099 6.151489 0.035900 -0.972700 0.229100
-36.436096 -57.345497 6.222900 0.668400 -0.671600 0.319700
-35.934875 -56.592697 6.281494 0.857500 -0.365000 0.362700
-35.822479 -55.903801 6.282074 0.884100 0.134200 0.447600
-39.470673 -54.962799 6.063477 -0.110500 -0.496800 0.860800
-39.030273 -54.752602 6.125977 0.199400 -0.407200 0.891300
-38.542175 -54.238304 6.188293 0.315400 -0.294700 0.902000
-38.299286 -53.728401 6.213196 0.426100 0.012100 0.904600
-39.847687 -54.767403 6.000977 -0.501100 -0.313700 0.806500
-39.173798 -52.025398 6.037994 0.219700 0.361400 0.906200
-39.517792 -51.880001 5.981781 -0.136100 0.512200 0.848000
-40.722198 -53.064499 5.825775 -0.682700 0.019400 0.730400
-39.991180 -52.040199 5.913086 -0.433800 0.461400 0.773900
-40.479279 -52.554600 5.850677 -0.567900 0.330700 0.753800
-38.569275 -54.715401 2.027283 -0.002200 -0.974000 -0.226500
-37.309784 -53.388199 2.188202 0.991200 -0.046300 0.123600
-39.885284 -52.719101 1.777283 -0.938800 0.154500 -0.307900
-38.591095 -51.444401 1.944794 0.131400 0.991100 -0.020000
-39.472687 -55.250298 5.723175 -0.044700 -0.967300 0.249500
-39.918488 -55.043900 5.649902 -0.691900 -0.709300 0.134600
-38.933380 -54.971703 5.799103 0.536900 -0.786500 0.305100
-38.323975 -54.329597 5.876984 0.750400 -0.566300 0.340900
-38.010193 -53.709099 5.910095 0.900000 -0.002500 0.436000
-38.992188 -51.749500 5.712189 0.551600 0.714300 0.430800
-40.900482 -53.084301 5.451996 -0.997600 -0.018400 0.066300
-40.586700 -52.463799 5.485077 -0.818700 0.568400 0.081200
-39.977295 -51.821602 5.562988 -0.569000 0.808700 0.149000
-39.400391 -51.600101 5.645996 -0.051800 0.945500 0.321600
-26.095581 -58.402901 8.195587 -0.230600 -0.505300 0.831600
-26.480499 -57.221504 8.108002 -0.603400 0.343500 0.719700
-26.548889 -57.676498 8.108490 -0.666600 -0.021300 0.745200
-26.388489 -58.168701 8.144989 -0.571800 -0.269600 0.774800
-25.625885 -58.292999 8.264893 0.110100 -0.463100 0.879500
-24.661987 -55.933098 8.355591 -0.358800 0.506100 0.784300
-23.807373 -57.004601 8.512482 0.343600 -0.309500 0.886700
-24.252594 -55.860001 8.416595 -0.062500 0.523500 0.849700
-23.739075 -56.549599 8.511993 0.388300 0.057100 0.919800
-23.899475 -56.057304 8.475494 0.277000 0.337900 0.899500
-25.250977 -58.108002 4.514801 -0.260600 -0.916000 -0.305000
-25.664886 -56.837799 4.420685 -0.882400 0.400300 -0.247400
-23.656799 -55.399597 4.439789 -0.362000 0.932100 -0.014200
-22.844788 -56.637497 4.848083 0.960500 -0.259000 0.102100
-23.225494 -55.326103 4.505890 0.435100 0.891300 0.127600
-25.605072 -58.538704 7.931091 0.332700 -0.903900 0.268700
-26.146179 -58.648300 7.850800 -0.293100 -0.939900 0.175100
-26.492401 -58.344101 7.790375 -0.834800 -0.547900 0.055000
-26.692688 -57.729500 7.744781 -0.993000 -0.115700 0.021900
-26.626801 -57.173401 7.741486 -0.878700 0.470800 0.079300
-24.556976 -55.687500 8.022797 -0.387300 0.895500 0.219400
-23.535400 -57.052803 8.212402 0.783500 -0.491400 0.380500
-23.469482 -56.496704 8.209076 0.894100 0.108400 0.434500
-23.669800 -55.882103 8.163483 0.690800 0.580200 0.431400
-24.084778 -55.619904 8.093597 0.137800 0.922200 0.361400
-26.896393 -58.594498 8.119873 0.297400 -0.313200 0.901900
-26.730194 -58.140099 8.134399 0.389800 -0.055100 0.919200
-26.766571 -57.582901 8.115295 0.361300 0.174700 0.915900
-26.983795 -57.257202 8.074097 0.031300 0.553600 0.832200
-27.332672 -58.911903 8.060699 0.083600 -0.472600 0.877300
-28.975372 -57.755203 7.780884 -0.353100 0.504800 0.787700
-29.347900 -58.051102 7.730896 -0.545100 0.357800 0.758200
-29.324280 -59.409798 7.767395 -0.294800 -0.526900 0.797200
-29.577881 -58.526901 7.707184 -0.667000 0.125900 0.734400
-29.541473 -59.084099 7.726196 -0.638300 -0.142100 0.756500
-25.932373 -58.233002 4.422394 0.863900 -0.501800 0.044000
-26.026398 -56.795204 4.373291 0.543300 0.833500 0.100700
-28.485596 -59.090401 4.051788 -0.501200 -0.791500 -0.349800
-28.512390 -57.629997 4.012390 -0.747700 0.624600 -0.225500
-26.652283 -58.704002 7.812897 0.734000 -0.571400 0.367000
-27.148987 -59.084000 7.746002 0.378300 -0.885200 0.270800
-26.465485 -58.143600 7.828003 0.904300 -0.110900 0.412200
-26.510986 -57.447998 7.804199 0.846700 0.294300 0.443300
-26.761475 -57.034401 7.755798 0.310800 0.868500 0.386200
-29.034973 -57.584602 7.420593 -0.473100 0.861700 0.183200
-29.422577 -59.634201 7.410797 -0.422800 -0.893800 0.149500
-29.673096 -59.220703 7.362396 -0.950800 -0.307700 0.036400
-29.718597 -58.525101 7.338593 -0.988900 0.147900 0.015000
-29.458801 -57.940201 7.364288 -0.805200 0.584400 0.100800
-34.276794 -59.357903 6.985779 0.016400 -0.496900 0.867600
-33.838989 -59.042198 7.045288 0.268100 -0.352300 0.896700
-33.437500 -58.439201 7.092285 0.364200 -0.206900 0.908000
-33.313293 -57.910599 7.098602 0.400800 0.186600 0.896900
-34.763000 -59.290398 6.909698 -0.354000 -0.444400 0.822900
-34.812500 -56.629898 6.837799 0.072800 0.482700 0.872800
-35.246490 -56.598000 6.770477 -0.257800 0.519300 0.814800
-36.262299 -58.009697 6.648895 -0.660800 -0.157800 0.733800
-35.736481 -56.878204 6.702087 -0.508400 0.412900 0.755700
-36.138000 -57.481201 6.655182 -0.621200 0.245300 0.744300
-33.315674 -59.050499 2.988892 0.279300 -0.945900 -0.165000
-32.279785 -57.494499 3.110077 0.961700 0.235800 0.139600
-35.403595 -57.632797 2.634583 -0.925300 -0.116800 -0.360900
-34.312683 -56.114098 2.765076 -0.128400 0.990000 -0.059100
-34.193573 -59.633400 6.621979 0.202100 -0.943400 0.263000
-34.761292 -59.575897 6.533600 -0.412000 -0.898900 0.149100
-33.663879 -59.227898 6.693390 0.668800 -0.671100 0.319900
-33.162689 -58.474998 6.751984 0.839000 -0.400900 0.368000
-32.990692 -57.826599 6.762695 0.850600 0.273100 0.449300
-34.688385 -56.345901 6.466583 0.281000 0.884600 0.372200
-36.458984 -58.095200 6.237488 -0.950900 -0.303400 0.060900
-36.286896 -57.446800 6.248199 -0.913900 0.402500 0.052400
-35.785675 -56.694000 6.306793 -0.709100 0.698100 0.098600
-35.196381 -56.328903 6.388275 -0.283400 0.925100 0.252700
-33.039673 -59.329498 7.154877 -0.611100 -0.156800 0.775800
-32.349701 -57.768097 7.222900 -0.341000 0.533000 0.774400
-32.725677 -58.187698 7.175476 -0.582200 0.314800 0.749700
-33.013184 -58.838303 7.147095 -0.642500 0.164500 0.748400
-32.718292 -59.608299 7.210876 -0.298100 -0.451500 0.841000
-30.458099 -57.943298 7.517181 0.047700 0.478200 0.877000
-30.826691 -59.783501 7.505096 0.085000 -0.501900 0.860700
-30.194977 -58.210197 7.563873 0.320200 0.202400 0.925500
-30.450775 -59.363998 7.552582 0.324100 -0.275000 0.905200
-30.163300 -58.713402 7.580994 0.392700 -0.099900 0.914200
-32.205475 -59.036499 3.107300 -0.835700 -0.408000 -0.367600
-31.463593 -57.357803 3.180389 -0.410000 0.905000 -0.113600
-29.878296 -59.514000 3.475494 0.532400 -0.844400 -0.058800
-29.197693 -57.822601 3.539001 0.862900 0.494600 0.103800
-32.865997 -59.832603 6.846802 -0.440200 -0.880200 0.177300
-33.223480 -59.493500 6.783783 -0.923200 -0.370800 0.100600
-33.171600 -58.884003 6.776978 -0.970300 0.236900 0.049600
-32.812683 -58.071800 6.812378 -0.850800 0.520900 0.069500
-32.362091 -57.544197 6.868683 -0.409700 0.886800 0.214000
-30.194580 -57.723099 7.205292 0.364100 0.841600 0.399000
-30.698486 -60.011497 7.183380 0.309900 -0.906100 0.288000
-30.247894 -59.483803 7.239685 0.780100 -0.517100 0.352200
-29.888977 -58.671600 7.274994 0.898100 -0.187400 0.397800
-29.903473 -58.048500 7.257782 0.806400 0.362800 0.467000
-49.454285 -39.822102 42.549896 -0.608500 -0.792700 0.036800
-49.167084 -38.549103 46.364288 -0.563000 -0.611000 0.556500
-50.655884 -37.443001 45.574677 -0.766000 -0.460200 0.448800
-51.652496 -36.752800 43.964203 -0.901900 -0.366100 0.229300
-51.890076 -36.663399 41.964478 -0.934300 -0.353900 -0.043300
-51.304901 -37.198700 40.111298 -0.854500 -0.426900 -0.296000
-50.053680 -38.215401 38.901276 -0.683900 -0.565500 -0.461000
-48.471771 -39.440903 38.658600 -0.468200 -0.732600 -0.494100
-46.982971 -40.547001 39.448181 -0.265300 -0.883400 -0.386400
-45.986298 -41.237198 41.058685 -0.129400 -0.977500 -0.166800
-45.748779 -41.326599 43.058380 -0.097000 -0.989600 0.105800
-46.333984 -40.791199 44.911499 -0.176800 -0.916700 0.358400
-47.585175 -39.774601 46.121582 -0.347400 -0.778100 0.523400
-47.686981 -35.962799 49.079773 -0.371700 -0.282000 0.884500
-50.265594 -34.047100 47.712097 -0.706600 -0.033200 0.706800
-51.991882 -32.851601 44.922699 -0.930800 0.122000 0.344600
-52.403381 -32.696800 41.459076 -0.984200 0.142100 -0.105300
-51.389679 -33.624001 38.249298 -0.852600 0.021700 -0.522100
-49.222595 -35.384903 36.153473 -0.571100 -0.207000 -0.794300
-46.482574 -37.507500 35.733002 -0.215300 -0.482700 -0.848900
-43.903992 -39.423302 37.100800 0.119600 -0.731500 -0.671300
-42.177673 -40.618801 39.890076 0.343800 -0.886700 -0.309000
-41.766296 -40.773602 43.353790 0.397200 -0.906800 0.140800
-42.779999 -39.846401 46.563477 0.265600 -0.786400 0.557700
-44.947083 -38.085503 48.659393 -0.015900 -0.557700 0.829900
-45.410675 -32.756401 49.968689 -0.243700 -0.094600 0.965200
-48.388184 -30.544300 48.389374 -0.613000 0.179800 0.769400
