38.699188 -59.911003 52.227493 0.667800 -0.744300 -0.001700
36.876801 -58.645004 47.384674 0.164800 -0.789100 -0.591700
28.215485 -62.841400 23.456787 -0.496000 -0.860100 -0.119000
30.629700 -59.936203 50.965485 -0.143000 -0.710400 -0.689100
2.123688 -57.938202 1.116089 -0.166200 -0.986100 -0.000800
25.300995 -62.902100 8.851685 -0.219700 -0.948600 0.227800
-8.603424 -36.915901 -7.893402 -0.430900 -0.777700 -0.457700
-26.175201 -32.939899 -2.576111 -0.659000 -0.752000 -0.015200
9.209381 -60.267403 54.361191 -0.556600 -0.827300 0.075900
-31.956512 26.522398 46.824280 -0.891900 0.446200 -0.073600
-33.743408 7.359299 46.048096 -0.997200 -0.055400 -0.050400
-11.480316 -47.403099 31.370300 -0.682800 -0.730500 0.012000
-7.209625 -50.927299 23.281891 -0.511200 -0.850200 -0.125800
-3.805725 -49.671898 -2.880798 -0.703300 -0.512300 -0.492900
1.316071 -56.755898 13.506897 -0.329100 -0.944000 -0.022100
30.743774 -63.804199 10.311188 0.006600 -0.933700 0.358100
30.598877 -62.973999 55.230881 0.109000 -0.993800 -0.020300
29.775879 -59.467102 83.225494 -0.038700 -0.923500 0.381700
-7.663208 -17.875500 99.577682 -0.349000 -0.142700 0.926200
-18.217407 14.403700 91.880890 -0.462300 0.342800 0.817800
-30.753601 27.658499 70.212189 -0.717600 0.615400 0.326100
-25.672607 19.587198 11.566101 -0.797600 0.544100 -0.260400
-30.088409 31.071299 -27.250610 -0.381200 0.607700 0.696700
-14.412415 -20.332602 -39.764099 -0.004100 -0.983200 -0.182400
13.707581 -61.118599 8.919678 0.222200 -0.974400 -0.034400
-32.147400 6.076700 16.243103 -0.955600 0.276500 0.102000
-12.167023 -46.807503 15.371277 -0.682800 -0.722100 -0.110700
-33.402405 -24.705801 -30.584717 -0.730000 -0.677900 -0.086700
-12.963928 -31.029501 92.968582 -0.580700 -0.490100 0.650000
-36.442627 8.428900 69.542389 -0.973700 -0.015000 0.227500
15.211884 -63.646797 58.194092 -0.185700 -0.909000 0.373200
-26.853027 -0.031601 87.322281 -0.768100 -0.070500 0.636400
-44.426514 18.684801 -27.675720 -0.562300 0.158500 0.811600
15.033783 -55.045097 84.062286 -0.298900 -0.797700 0.523800
-52.005524 11.212297 -35.153107 -0.527000 -0.448900 0.721600
-60.885712 27.561998 -32.092926 -0.376600 0.107900 0.920100
39.046692 -62.730103 31.727295 -0.072300 -0.947000 0.312900
34.314789 -61.214203 29.568298 -0.215500 -0.954800 0.204700
-19.848419 -43.487701 52.968887 -0.587300 -0.728000 0.353600
-18.237122 -45.319901 48.384491 -0.829700 -0.426200 -0.360400
-22.790314 -39.743103 37.660492 -0.388900 -0.914200 0.113800
-25.767609 -38.698700 40.940796 -0.700200 -0.712900 -0.039100
-26.778015 -37.432400 46.059387 -0.787800 -0.591900 0.170600
-24.725708 -37.358299 51.021393 -0.769700 -0.598200 0.223200
-15.749725 -44.510101 31.676483 -0.508300 -0.749800 0.423600
-19.746307 -45.473503 29.766602 -0.265000 -0.865600 0.424900
-106.867828 2.607698 -88.577301 -0.785100 -0.594800 0.172700
-47.807129 -1.867201 -48.056519 -0.534300 -0.646200 0.544900
-10.687927 81.577698 -101.383209 -0.071100 0.997500 0.000000
-35.204102 78.477005 -101.383209 -0.283800 0.958900 0.000000
27.348785 -61.485100 52.994385 0.138800 -0.929600 -0.341400
32.961487 -60.929001 50.680695 -0.269200 -0.804000 -0.530300
36.434296 -60.153198 49.178802 0.213800 -0.850300 -0.481000
32.758179 -62.672302 54.462891 0.103200 -0.994500 -0.017300
26.923584 -63.212502 56.060486 0.109500 -0.994000 -0.000700
19.812378 -63.175400 57.443283 -0.047200 -0.973500 0.223600
0.000000 -31.055201 -71.933807 0.000000 -0.866400 0.499400
0.000000 65.322899 -48.159698 0.000000 0.780000 0.625800
-45.510620 59.510002 -46.202026 -0.266300 0.746400 0.609900
-80.891205 36.087898 -48.537506 -0.610500 0.418600 0.672300
-88.628815 16.078897 -52.093811 -0.644600 -0.147500 0.750100
-82.199219 -1.710501 -58.048523 -0.459000 -0.536900 0.707800
-62.804810 -16.512701 -63.720520 -0.194500 -0.569000 0.799000
-22.835510 -31.099899 -64.607300 -0.284500 -0.695500 0.659800
-16.483002 -33.557701 -64.714325 0.082800 -0.757200 0.647900
-10.130615 -30.951702 -64.821198 0.106800 -0.810100 0.576500
-6.584320 -32.349998 -66.741699 0.104200 -0.856600 0.505300
-4.428009 -32.788002 -68.895599 0.281200 -0.835200 0.472700
-1.853607 -33.286201 -71.427399 0.573400 -0.648500 0.500600
-14.951324 -20.321800 -44.265717 -0.001900 -0.999800 0.019500
-8.594727 -25.839401 -41.765015 -0.595300 -0.801400 -0.058500
1.489471 -31.420200 -40.498108 -0.225600 -0.937500 -0.265000
5.525482 -31.344801 -40.572327 0.112800 -0.916500 -0.383700
8.278198 -30.644199 -40.619598 0.296700 -0.850100 -0.435100
0.000000 -39.134800 -77.337311 -0.000000 -0.871600 0.490100
0.000000 79.383400 -71.867126 0.000000 0.938500 0.345300
-57.299805 63.288704 -69.321808 -0.445500 0.833500 0.326900
-92.811523 46.657402 -70.806122 -0.588100 0.666200 0.458500
-107.897217 22.834200 -71.345215 -0.808600 0.059000 0.585300
-98.436523 0.686699 -72.273315 -0.712500 -0.548100 0.438100
-70.676819 -26.681601 -71.867126 -0.441800 -0.791500 0.422200
-32.006226 -39.956802 -73.181824 -0.219000 -0.794000 0.567100
-17.783600 -40.682999 -73.528412 0.117000 -0.834500 0.538400
-9.192322 -38.653503 -74.652313 0.256000 -0.861000 0.439400
-6.011902 -38.443100 -75.663513 0.101500 -0.911300 0.399000
-3.722504 -38.716301 -76.416321 0.034900 -0.903300 0.427500
-1.718323 -39.020302 -77.135620 0.016100 -0.888000 0.459500
-2.084412 -41.950203 -101.383209 -0.087900 -0.996100 0.001200
0.000000 -42.062500 -101.383209 0.000000 -1.000000 -0.000000
0.000000 81.753799 -101.383209 0.000000 1.000000 0.000000
-63.660126 64.742699 -101.383209 -0.431000 0.902300 -0.008200
-101.904022 46.632500 -101.383209 -0.637200 0.770700 0.000000
-117.950317 24.690798 -101.383209 -0.996500 0.083100 0.000000
-106.867828 2.607698 -101.383209 -0.779000 -0.627100 -0.000000
-70.676819 -26.681601 -101.383209 -0.543800 -0.839200 0.000000
-36.106323 -44.222401 -101.383209 -0.366900 -0.930200 0.000000
-20.029602 -48.877998 -101.383209 0.199300 -0.979900 0.000000
-11.232300 -41.717800 -101.383209 0.382500 -0.924000 0.000000
-7.294708 -41.315399 -101.383209 -0.009300 -1.000000 0.000000
-4.510712 -41.652100 -101.383209 -0.121100 -0.992600 -0.000200
-16.412323 -44.606499 27.083374 0.192900 -0.871900 -0.450100
-33.761505 -2.560202 12.619781 -0.978800 0.057400 0.196500
-34.322205 -15.271400 10.698792 -0.958900 -0.223400 0.175100
-34.473114 1.300098 2.927673 -0.957300 0.259400 0.127900
-13.524719 17.683001 91.407684 -0.276100 0.476000 0.835000
-22.208923 36.024002 69.750183 -0.636900 0.681800 0.360000
-25.518616 30.350000 70.015793 -0.639800 0.665700 0.384000
-24.912201 34.315002 43.362396 -0.747200 0.651600 -0.131100
-28.434326 30.418699 45.093384 -0.764200 0.636900 -0.101700
-17.583099 22.795198 10.155273 -0.249200 0.878700 -0.407100
-22.139923 22.747999 10.752197 -0.373700 0.867300 -0.328800
-13.845917 28.350298 -13.661102 0.019100 0.911300 0.411200
-19.988922 28.373098 -12.997803 -0.450800 0.839800 0.302700
-7.352814 35.890999 -24.235718 -0.081100 0.732400 0.676100
-20.634705 33.320900 -25.754120 -0.280800 0.734500 0.617800
-9.300018 51.693901 -36.414398 -0.042600 0.611400 0.790100
-23.113617 45.995399 -36.441925 -0.196200 0.521200 0.830600
-11.230408 63.471397 -48.145111 -0.045200 0.772900 0.632900
-30.339508 62.264999 -45.941498 -0.127700 0.710800 0.691700
-10.687927 81.577698 -71.867126 0.036200 0.949800 0.310600
-35.204102 78.477005 -71.867126 -0.321100 0.905500 0.277400
-35.204102 78.477005 -88.577301 -0.304900 0.952100 0.021400
-10.687927 81.577698 -88.577301 -0.051100 0.998400 0.022600
-21.056824 -41.233398 51.178589 -0.698500 -0.441300 -0.563300
-26.886810 -34.877800 51.592392 -0.719900 -0.658600 0.218900
-25.239624 -32.241901 54.128387 -0.390100 0.600600 0.698000
33.630890 -60.963898 4.981781 0.231300 -0.007900 0.972800
35.481781 -60.142899 4.268494 0.274700 0.013600 0.961400
25.284882 -61.796799 5.229401 0.064800 -0.139800 0.988100
30.740082 -61.741699 5.170288 0.066300 -0.111300 0.991600
43.128265 -54.219101 72.385391 0.545100 -0.837000 0.047700
14.600983 -43.734100 45.760284 0.371600 -0.928300 0.013400
21.646179 -37.884102 7.907776 -0.185600 0.030800 -0.982100
10.510895 -44.958500 9.775879 0.217900 -0.088200 0.972000
19.762177 -39.088799 8.226074 -0.185500 0.030800 -0.982200
13.353699 -43.161903 9.301575 0.211300 -0.084500 0.973800
17.285980 -40.668400 8.643585 -0.185100 0.045200 -0.981700
18.261475 -61.236198 5.559387 0.373100 -0.795300 0.477800
19.343475 -23.090200 -53.307312 -0.058400 -0.847200 0.528100
39.389099 -57.448799 23.679993 0.235200 -0.146700 -0.960800
48.811066 2.792398 17.298889 0.900400 0.354600 -0.252100
53.655609 -20.741800 44.085175 0.987200 0.156800 -0.028600
55.659393 -26.234402 49.815399 0.952600 0.272300 0.135700
55.385406 -34.003502 53.903488 0.894400 0.021700 0.446600
54.053070 -39.623199 56.170181 0.952500 -0.222600 0.207800
51.466400 -45.555603 57.183685 0.888300 -0.452900 0.076000
48.564301 -50.165901 57.032883 0.741300 -0.659200 0.126500
44.873077 -53.542801 56.847687 0.591900 -0.792500 0.146900
52.265411 -38.096001 31.728302 0.864800 -0.446900 0.228700
53.648956 -33.184200 33.720978 0.918600 -0.317500 0.235200
54.091461 -29.952202 35.243500 0.966300 -0.179200 0.185000
49.255463 -43.502098 31.759399 0.826800 -0.501100 0.255400
35.616272 -59.372398 -11.157013 0.589600 -0.772800 0.235000
38.776398 -55.972099 -12.681915 0.882100 -0.405700 0.239600
40.500275 -49.424500 -13.147400 0.959600 -0.267900 0.085900
43.821381 -44.693298 -6.275604 0.722400 -0.682600 0.110100
46.217316 -41.587101 -1.444000 0.920600 -0.350200 -0.173000
47.147308 -40.747101 5.721893 0.904200 -0.426900 -0.011200
46.546112 -41.380402 10.833374 0.891100 -0.434500 -0.131100
46.610565 -45.190201 17.369598 0.706400 -0.627300 -0.328000
45.432770 -49.705399 23.765900 0.584200 -0.700400 -0.410000
44.793060 -53.546600 27.006683 0.827700 -0.544100 -0.137600
55.474884 -23.891602 60.436691 0.962500 -0.038200 -0.268600
56.775177 -32.381001 69.828781 0.977700 -0.190300 -0.089400
53.697906 -41.404701 72.855988 0.879400 -0.307900 -0.363000
51.357574 -49.730701 73.021591 0.715000 -0.376300 -0.589200
48.478912 -54.522003 74.829681 0.834400 -0.551100 -0.010100
46.472198 -47.620800 33.027679 0.793800 -0.435100 0.424900
43.677094 -49.796402 35.795288 0.883200 -0.195000 0.426600
42.387695 -52.882401 38.283997 0.976400 -0.053400 0.209300
42.339874 -57.187500 39.743195 0.955700 -0.200600 0.215400
55.176300 -34.964802 39.821198 0.973000 -0.107400 -0.204100
53.481903 -39.894001 42.787781 0.900700 -0.434300 -0.010300
101.903961 46.632500 -88.577301 0.655100 0.734500 0.176800
117.950287 24.690798 -88.577301 0.966000 0.086100 0.243800
70.676666 -26.681601 -88.577301 0.536400 -0.843200 0.036300
36.106171 -44.222401 -88.577301 0.365200 -0.915500 0.168800
11.232300 -41.717800 -88.577301 -0.401300 -0.913200 0.070700
7.294678 -41.315399 -88.577301 -0.004500 -0.993500 0.114100
50.691559 -44.811001 44.369476 0.781100 -0.612400 0.121900
47.524567 -48.056602 44.003082 0.331300 -0.932400 0.144300
44.026215 -47.791100 42.410889 -0.130200 -0.983300 -0.127200
46.415863 -47.917801 84.844681 0.475300 -0.404900 0.781100
38.681000 -31.153101 94.403885 0.305300 -0.169700 0.937000
20.285583 4.995199 98.594284 0.196900 0.242300 0.950000
42.872589 -29.212301 92.889893 0.527800 -0.015100 0.849200
28.600891 7.861898 95.397385 0.279900 0.257100 0.925000
34.673889 42.960304 -36.720520 0.157500 0.493000 0.855700
20.029480 -48.877998 -88.577301 -0.170100 -0.971200 0.166700
47.748260 5.633699 19.394897 0.861100 0.429200 -0.272500
2.916199 -27.820000 -53.966705 0.105400 -0.991000 0.082100
6.685089 -27.164600 -53.966705 0.413000 -0.904100 0.109300
9.323700 -25.100300 -54.080322 0.570300 -0.795200 0.205700
12.496674 -22.759201 -53.786713 0.265500 -0.890800 0.368700
46.766998 -1.933901 34.271088 0.541000 0.547800 -0.638200
41.380371 -1.854601 27.988586 0.956000 0.290300 -0.041500
48.510162 6.339300 39.020203 0.651500 0.119600 -0.749200
51.478668 1.357500 36.324402 0.388400 0.470400 -0.792400
48.034576 7.082399 34.417175 0.990600 -0.125600 -0.054900
48.169769 5.014200 29.562500 0.955600 -0.283600 -0.080100
48.142303 4.970499 34.555298 0.968900 0.101700 -0.225400
35.978180 4.455099 4.739777 0.857000 0.495700 -0.140600
50.603912 -2.379002 32.507874 0.817700 0.457400 -0.349400
45.177277 10.730398 26.750702 0.999000 0.045100 0.000000
45.953400 8.478300 24.339203 0.967800 0.225500 0.111800
48.885590 3.382000 21.303986 0.964700 -0.021400 0.262600
44.571503 -1.965700 22.126801 0.863200 0.308700 0.399500
47.779205 11.318701 40.152191 0.802100 0.085100 -0.591100
45.217865 13.163801 32.383484 0.989600 -0.051400 -0.134500
44.387482 -43.695000 -2.327026 0.802200 -0.480500 -0.354500
38.032898 -59.069000 5.369873 0.436200 -0.543900 -0.716900
37.792389 -59.986000 3.280273 0.586500 -0.455700 0.669600
39.866486 -57.743401 2.771179 0.716200 -0.402400 0.570200
43.009674 -47.488701 2.862488 0.192000 -0.071100 0.978800
42.282196 -52.723400 2.090576 0.851300 -0.239200 0.467000
40.004974 -56.687401 4.994781 0.607900 -0.490100 -0.624700
41.872375 -51.816002 4.055298 0.576600 -0.246500 -0.778900
42.760590 -46.663200 3.857300 0.944200 -0.303600 -0.127900
42.384277 -53.318100 0.954376 0.956900 -0.275500 -0.091700
40.171478 -58.276604 1.199402 0.838700 -0.544500 0.009800
38.020599 -60.800598 1.904388 0.676100 -0.735200 0.048800
39.006500 -59.639404 6.939697 0.629100 -0.654200 -0.419800
40.971497 -56.899902 6.412781 0.784600 -0.480400 -0.391900
42.243683 -52.383400 4.947388 0.887400 -0.286000 -0.361500
40.225800 -54.708397 14.686981 0.886400 -0.445400 0.126500
38.069275 -58.542198 14.175385 0.526200 -0.778900 0.341200
39.113373 -57.214500 13.796875 0.868700 -0.441100 0.225300
37.164673 -58.885704 13.834503 0.409200 -0.859700 0.305600
37.973694 -56.954300 17.754486 0.801600 -0.505900 -0.318500
36.964783 -57.672401 17.264374 0.737100 -0.658000 -0.154100
38.024994 -57.821999 16.077393 0.660000 -0.669500 0.340900
37.237793 -58.497299 15.691803 0.461500 -0.843400 0.275200
37.494171 -60.159798 10.655579 0.313600 -0.799900 0.511700
38.465576 -60.195900 10.379395 0.517400 -0.730500 0.445700
49.359100 -0.344801 39.322998 0.590200 -0.256800 0.765300
52.845856 0.012400 41.517578 0.424100 -0.586900 0.689700
54.259186 1.231499 39.147888 0.997800 -0.054300 0.037900
39.897675 5.400999 21.463501 0.081800 0.890800 -0.447000
42.428589 2.863100 17.009186 0.014700 0.656700 -0.754000
45.235504 7.533400 16.760895 0.020900 0.656100 -0.754400
47.122467 9.659399 22.543274 0.892100 0.449000 -0.051000
48.140472 -3.319901 23.132599 0.736300 0.622100 -0.266300
33.244080 15.109499 -30.698700 0.739000 -0.339500 0.581900
33.026672 13.262899 -4.367310 0.862800 0.504000 0.039600
28.415985 18.205999 14.906799 0.729700 0.677600 -0.092100
30.170471 21.285200 30.120880 0.693600 0.695000 -0.189500
43.079498 -52.745201 25.880280 0.295100 -0.559600 -0.774400
43.342987 -48.624802 21.352173 0.572600 -0.720000 -0.392000
42.851898 -47.979900 0.181183 0.944100 -0.282900 -0.169300
54.552277 -27.555601 40.622589 0.912800 -0.019600 -0.408000
55.538971 -32.844601 43.338776 0.865900 -0.251400 -0.432500
52.988373 5.530199 40.946777 0.940700 0.330600 0.076700
50.343903 9.728199 41.765381 0.823500 0.564900 0.053300
47.288971 14.888498 31.867584 0.949400 0.280000 -0.142500
47.024200 11.880999 25.306488 0.964800 0.224600 -0.136900
47.804901 1.954500 14.198090 0.334000 0.283100 -0.899100
49.713409 -2.188101 14.416992 0.674900 -0.284600 -0.680800
53.476959 -0.945601 35.784973 0.888200 -0.359700 -0.285900
50.855865 4.093599 43.832886 0.193900 -0.199700 0.960500
47.928314 10.559999 44.376678 0.050500 0.355800 0.933200
44.169708 16.560999 32.718201 -0.258400 0.965500 -0.030700
44.179901 13.007700 25.062775 -0.261500 0.848300 -0.460500
43.572357 0.475899 15.757782 0.291400 0.467000 -0.834900
45.841461 -3.040001 15.436401 0.482200 0.182400 -0.856900
50.412811 -3.264502 36.749573 0.968300 -0.238700 0.073800
47.161102 2.849699 41.026184 0.442500 0.172800 0.880000
43.950897 7.297298 40.597992 -0.576700 -0.058600 0.814900
39.740784 10.060200 34.527283 0.782100 0.557800 -0.277700
47.447906 -5.201601 19.362000 0.973800 -0.117100 -0.194800
41.491486 9.509800 38.095795 0.767400 0.609500 -0.199100
40.289490 3.642799 15.168884 0.654700 0.716800 -0.240100
34.676697 8.274399 12.421173 0.785800 0.597700 -0.158800
51.282867 -3.020901 53.721893 0.935300 0.323600 -0.143500
49.683258 -1.236900 45.444000 0.927100 0.372400 0.043300
29.114594 -16.032501 -36.678925 0.556500 -0.791800 0.251700
32.737000 -12.944201 -18.349823 0.684200 -0.729000 -0.023200
12.959473 -28.345200 -22.190704 0.647100 -0.483100 -0.589700
17.075073 -25.543900 -23.036804 0.673000 -0.400800 -0.621600
19.489075 -19.972900 -23.151306 0.814600 -0.174100 -0.553300
19.339081 -13.766401 -25.215027 0.652600 -0.736500 -0.177900
42.064972 11.573698 48.106598 0.812200 0.548700 -0.198100
49.301666 -43.647903 84.869995 0.713900 -0.178700 0.677000
46.636810 -29.671600 89.547089 0.695800 0.019800 0.718000
47.999298 -54.654099 79.131287 0.630700 -0.626700 0.457700
44.079376 -55.412003 47.871582 0.326500 -0.853800 -0.405400
47.066986 -53.156303 47.901581 0.616500 -0.486100 -0.619400
48.868011 -49.435699 48.883575 0.670500 -0.254000 -0.697100
53.327362 -43.258003 48.576874 0.778900 -0.458300 -0.428100
56.655609 -36.036400 47.631683 0.828500 -0.329900 -0.452500
54.020477 -32.370602 38.452301 0.815100 -0.154900 -0.558200
42.380585 -46.777298 41.760773 0.533200 -0.807800 0.251200
44.034576 -47.235500 41.527191 0.233900 -0.270500 -0.933900
47.500275 -47.583500 42.950195 0.373500 -0.443300 -0.814800
50.387360 -44.362602 43.243591 0.278100 -0.276800 -0.919800
52.853363 -39.929401 41.798676 0.088100 -0.420600 -0.903000
54.561798 -36.036201 39.176178 0.244700 -0.475500 -0.845000
53.411957 -14.819501 42.538086 0.979000 0.200100 0.039000
53.951813 -24.625200 35.809387 0.996200 -0.031600 0.081000
54.639069 -19.838301 31.483398 0.968900 0.234600 0.078800
52.397003 -15.656700 25.874390 0.906100 0.378900 -0.188400
34.675995 -7.261301 -2.625000 0.866200 -0.055400 -0.496600
40.169495 -12.545701 -3.590118 0.657400 0.515400 -0.549700
47.167206 -38.060101 11.367096 0.984500 -0.061000 -0.164500
47.946869 -41.868801 17.081177 0.931600 -0.280900 -0.230500
46.984161 -37.122101 6.964874 0.993700 0.106500 -0.035500
46.171478 -37.201401 -1.843719 0.969900 0.132300 -0.204300
26.190186 -23.421200 -52.828003 0.336500 -0.844900 0.415900
40.747101 -45.410900 -5.749908 0.793200 -0.608600 0.017800
39.973877 -50.109501 -8.957214 0.976400 -0.208800 -0.055400
38.506500 -55.236099 -8.597321 0.883100 -0.461200 -0.085500
35.856476 -58.568001 -7.734497 0.666900 -0.736700 -0.111900
43.025116 -16.553001 -2.483398 0.806200 0.371900 -0.460200
45.053192 -20.442501 -1.567505 0.896900 0.284700 -0.338400
12.529999 -33.155300 -33.494598 0.600500 -0.783700 -0.158600
18.162872 -34.017799 -21.202423 0.131900 -0.092700 -0.986900
24.764374 -44.384399 -21.829010 0.019800 0.227300 -0.973600
29.629791 -42.482700 -19.851318 0.125900 0.390400 -0.912000
33.620972 -32.827301 -15.835327 0.250700 0.324600 -0.912000
35.499573 -19.496601 -11.408203 0.517000 0.333800 -0.788200
43.074066 -5.401600 6.720581 0.847400 0.312000 -0.429700
49.538483 -6.176001 25.578979 0.943900 0.220300 -0.246000
43.312164 -46.209900 41.937775 0.833700 0.459500 -0.306300
43.338104 -47.789299 40.898376 0.526100 -0.772900 0.354700
44.976776 -47.298103 39.901978 0.702000 -0.621000 0.348600
47.080414 -45.774399 38.851196 0.604300 -0.372800 0.704100
45.832977 -45.308300 44.092682 0.227700 0.330900 -0.915800
49.540070 -42.458603 38.133698 0.487800 -0.269200 0.830400
49.143097 -41.971802 44.682892 -0.267800 0.078800 -0.960200
52.256256 -38.963001 38.582001 0.725400 -0.289800 0.624400
53.619110 -34.334602 39.777985 -0.587000 -0.485900 -0.647500
55.042572 -31.943802 41.388397 0.974100 -0.000800 -0.226000
51.701996 -36.500801 42.947083 -0.563000 -0.195300 -0.803100
52.445099 -13.002300 29.706879 0.948300 0.281200 -0.147200
53.415009 -17.966900 23.421082 0.880700 0.377600 -0.285900
52.999359 -23.586201 20.362579 0.857500 0.117800 -0.500800
52.399567 -31.589302 19.007874 0.861400 -0.167900 -0.479300
48.994598 -36.066601 17.587677 0.858700 -0.298800 -0.416300
42.200989 -23.935701 -7.807098 0.778200 0.321900 -0.539300
46.194366 -20.298901 5.752502 0.958400 0.193200 -0.209900
47.872406 -21.849100 12.911102 0.934200 0.109000 -0.339700
57.310883 -27.383301 26.362701 0.993000 -0.030900 -0.114200
53.493378 -29.372101 37.961090 0.989000 -0.056800 -0.136300
52.473358 -33.194702 36.298401 0.922600 -0.376500 0.083500
51.270111 -38.133801 32.808685 0.868200 -0.398800 0.295500
48.601410 -43.015701 32.764374 0.792100 -0.548100 0.268600
45.341095 -46.148399 34.125702 0.771500 -0.507800 0.383400
42.954071 -48.504200 36.994873 0.860300 -0.166400 0.481900
41.789490 -50.484901 39.390686 0.894600 0.107400 0.433700
42.125000 -56.383301 41.255798 0.885400 -0.128000 0.446800
45.630585 -15.224800 5.657196 0.924200 0.192000 -0.330000
56.245697 -34.695202 69.486282 0.965100 -0.256300 -0.052700
54.972809 -38.243301 61.227386 0.977600 -0.196900 -0.074800
55.736359 -42.608601 51.375595 0.921700 -0.380800 -0.073900
46.552887 -51.395203 71.994186 0.797200 -0.603600 0.011700
49.748199 -50.335602 61.447388 0.711300 -0.701600 0.042300
49.174408 -53.224201 51.274796 0.726900 -0.684200 -0.058700
46.230011 -51.913803 47.017700 0.478900 -0.143200 -0.866100
45.092682 -50.239300 46.453583 0.535300 -0.196100 -0.821600
44.709381 -49.317200 45.664978 0.646800 -0.230600 -0.727000
43.881378 -51.432098 46.031494 0.684700 -0.245200 -0.686400
41.606689 -41.792400 42.329285 0.711400 0.224600 -0.665900
44.316010 -45.962101 16.873688 0.685900 -0.681000 -0.256400
42.615814 -58.172501 37.774384 0.966000 -0.214700 0.144100
41.313599 -54.621201 42.335175 0.961600 -0.158200 0.224100
41.950073 -47.285103 42.622284 0.771900 -0.632500 -0.063700
43.029510 -46.551201 44.257599 0.477400 -0.827900 -0.294500
41.363892 -49.088501 42.249481 0.857200 -0.315700 -0.406800
40.801483 -48.816601 40.713776 0.894800 -0.445300 0.032900
42.027283 -54.598701 36.200378 0.991600 -0.094000 0.089000
43.947357 -33.188702 -5.286926 0.968900 -0.118200 -0.217300
45.011200 -31.699699 0.647400 0.979200 -0.141700 -0.145400
45.983185 -31.973499 6.769196 0.958400 -0.207200 -0.196300
54.341705 -17.868801 36.014893 0.986300 0.164900 0.010900
54.515106 -22.696901 40.188477 0.993200 0.099500 -0.061100
55.054474 -23.626701 51.627991 0.986300 0.165200 0.002500
54.572479 -30.264101 31.475189 0.947000 -0.200500 0.251200
52.215668 -33.866798 38.860199 0.778300 -0.379400 -0.500300
50.579987 -31.385502 40.227783 -0.487000 -0.853000 0.187400
42.419189 -48.029800 38.548584 0.624300 -0.760300 0.179400
49.475800 -34.430801 38.392090 -0.079600 -0.271100 0.959200
37.136688 -14.155300 -53.782898 0.476100 -0.662700 0.578100
42.691315 -42.449600 39.839386 0.586700 0.215400 0.780600
47.306610 -37.798401 38.186981 0.137600 -0.056600 0.988900
44.845612 -40.831902 38.769287 0.303200 0.050700 0.951600
53.356293 -37.912800 44.699982 0.742300 -0.416700 -0.524800
50.054474 -43.433601 46.450500 0.649900 -0.568100 -0.504800
46.560394 -46.734200 46.018982 0.502600 -0.825700 -0.256000
48.863312 -33.411800 43.091400 -0.229700 -0.382000 -0.895200
46.449371 -37.127602 44.073883 0.032000 -0.138000 -0.989900
43.670013 -40.212303 43.683502 0.343300 0.051400 -0.937800
40.510498 -61.035500 20.025696 0.278100 0.271200 -0.921400
38.618073 -58.940399 18.998291 0.789400 0.047200 -0.612100
39.132385 -55.101601 18.208801 0.672200 -0.590900 -0.446000
42.815704 -54.542801 17.244873 0.188600 -0.309300 -0.932100
42.048279 -55.459702 18.390991 -0.445900 -0.608300 -0.656700
42.544891 -59.848000 19.813202 -0.127800 -0.324800 -0.937100
32.990479 -58.095703 -20.192505 0.351000 -0.625700 -0.696700
29.526276 -51.921303 -24.380310 0.177200 -0.076100 -0.981200
39.265778 -57.053001 -15.117126 0.850200 -0.517100 -0.099000
36.001587 -60.517303 -13.863525 0.469800 -0.882500 -0.023600
32.977386 -47.406303 -23.006012 0.236300 0.193500 -0.952200
36.780701 -54.859001 -20.726013 0.503800 -0.373400 -0.778900
38.192780 -40.287800 -19.479523 0.326400 0.317200 -0.890400
42.268494 -33.573101 -12.543427 0.833300 0.208800 -0.511900
42.192291 -39.483299 -16.206726 0.857300 0.132000 -0.497500
40.237488 -47.987198 -19.008026 0.792100 -0.074600 -0.605800
42.996368 -47.658798 7.474487 0.957100 -0.288400 -0.028600
40.383698 -53.951103 11.658600 0.939500 -0.298600 0.167900
39.581879 -58.212204 10.494873 0.860100 -0.358700 0.362800
49.129913 -45.924599 72.015182 0.805200 -0.562000 0.189500
52.856659 -41.229801 71.446884 0.866000 -0.474900 0.156800
54.950104 -29.081600 60.847382 0.989100 -0.072400 -0.128300
52.462677 -14.120501 49.200897 0.960700 0.264000 0.085200
32.634674 22.154200 43.697174 0.702300 0.679000 -0.214100
22.378784 25.372599 21.158997 0.552700 0.789200 -0.267700
21.921692 24.622198 -6.906799 0.538200 0.778900 0.322100
7.659180 31.053198 -11.395508 0.303100 0.904900 0.298800
54.637299 -32.103001 57.727386 0.999400 -0.026800 0.021100
52.830658 -45.461403 61.523392 0.902200 -0.430500 -0.027300
45.590790 -53.023399 61.968185 0.632300 -0.772500 0.057800
42.174286 -50.670700 21.824188 0.870800 0.427200 -0.243400
41.566589 -52.869701 25.596893 0.988400 -0.067900 -0.136000
42.813568 -57.416100 26.445099 0.958100 0.001000 0.286500
44.355499 -60.124702 23.083191 0.997900 0.050500 0.040400
39.639191 -53.708099 18.025879 0.729600 -0.297700 -0.615600
43.622162 -59.881699 20.156677 0.721400 -0.175500 -0.669900
43.244415 -55.187004 32.022491 0.987100 -0.114300 0.111900
43.369415 -53.062103 17.153290 0.360300 0.233900 -0.903000
44.722198 -56.058197 20.201477 0.943100 -0.186700 -0.275300
44.590973 -56.049103 23.304596 0.964900 -0.205600 0.163200
44.888702 -50.088699 21.323273 0.501200 0.854600 -0.135900
44.644073 -53.948097 25.293091 0.701800 0.076100 0.708300
42.795868 -61.303802 28.476685 0.936300 -0.181000 0.301000
44.380890 -50.823402 23.814392 0.340600 0.750600 0.566300
43.708771 -51.376099 18.522583 0.276700 0.721900 -0.634200
54.617401 -26.506100 33.350098 0.971400 -0.034200 0.235100
49.287872 -43.080200 30.177490 0.866300 -0.496500 0.054400
49.625763 -43.451500 37.112579 0.799900 -0.590900 0.105400
47.640656 -47.953400 24.958801 0.801300 -0.583900 -0.130100
51.898285 -49.812901 79.791489 0.788300 -0.484400 0.379400
49.631989 -29.767700 12.955383 0.925700 -0.128300 -0.355800
46.924774 -33.784901 11.871094 0.928400 -0.190000 -0.319400
45.116058 -42.395802 9.258789 0.811200 -0.577500 -0.092400
22.589874 -31.160301 -21.132019 0.293200 0.019800 -0.955800
16.372192 -21.429800 -35.585815 0.953400 -0.197100 -0.228500
15.561279 -30.058500 -33.566010 0.851300 -0.510300 -0.122000
25.771576 -24.599001 -18.530121 0.530500 0.136200 -0.836700
37.269379 -60.513100 0.117401 0.549700 -0.774900 -0.312000
41.680176 -43.556702 -14.010315 0.968400 -0.161700 -0.189800
40.797974 -50.007103 -15.606506 0.979800 -0.190500 -0.060400
39.531372 -58.290298 -0.857300 0.752500 -0.590400 -0.291700
41.743774 -52.547600 -1.104523 0.931600 -0.209900 -0.296900
45.238312 -40.516502 -7.134399 0.953100 -0.053200 -0.297800
44.180511 -51.276901 32.590881 0.876500 -0.454600 0.158200
41.359680 -42.348602 41.367676 0.932900 0.327200 0.150700
43.571259 -50.820301 44.598083 0.791100 -0.218200 -0.571500
46.333466 -48.288803 30.252075 0.828000 -0.543200 0.139500
41.906097 -54.006401 43.858673 0.812600 -0.449600 -0.370900
36.895172 -57.965698 4.421875 -0.289700 -0.022300 -0.956900
46.836273 -27.844601 -0.133698 0.969000 -0.074500 -0.235700
41.226074 -50.852600 3.686676 -0.076900 0.102100 -0.991800
38.768799 -55.859398 3.255096 -0.319500 -0.028000 -0.947200
38.683685 -56.200699 16.598480 0.850400 -0.472100 0.232400
44.164398 -64.416397 19.969788 0.660500 -0.282100 -0.695900
44.891815 -65.041000 23.918884 0.924600 -0.356300 0.134900
45.719513 -52.327499 22.286377 0.999600 0.027500 -0.007500
39.871277 -59.662399 8.933899 0.778600 -0.618400 0.106100
47.254608 -47.173500 47.019592 0.426400 -0.518200 -0.741400
46.703705 -46.634102 38.051575 0.531100 -0.833400 0.152900
52.090668 -39.016800 37.500488 0.946700 -0.288500 -0.143100
49.838470 -32.350800 41.968079 -0.454600 -0.594000 -0.663800
54.207916 -39.769100 45.378601 0.575000 -0.443100 -0.687700
51.484589 -45.431099 46.966980 0.561700 -0.533100 -0.632700
54.878082 -35.243599 24.968079 0.925000 -0.346400 -0.156000
51.499298 -41.614300 24.366974 0.844600 -0.485400 -0.226000
56.783905 -15.175100 62.619095 0.971000 0.122900 -0.205100
43.169708 15.330999 58.841187 0.807500 0.574700 -0.132800
56.238983 -22.254002 28.783600 0.964400 0.255400 0.068300
52.882965 -36.320702 29.799500 0.914300 -0.380000 0.140400
44.159760 -51.483299 28.972900 0.901700 -0.401500 0.160200
42.629608 -59.452499 33.733185 0.934400 -0.325600 0.144500
45.168304 -55.760803 51.129486 0.403200 -0.914100 0.043200
43.607208 -54.327202 46.242279 0.499500 -0.574400 -0.648500
45.062286 -52.010803 20.656189 0.923500 0.057600 -0.379300
48.028412 -48.774200 48.012177 0.525900 -0.281300 -0.802700
45.537506 -30.079401 -6.296997 0.950400 -0.058900 -0.305400
42.606903 -51.823700 6.240875 0.985500 -0.168000 0.023300
28.970795 -14.364500 -13.501923 0.727100 -0.369100 -0.578900
36.554688 -1.425501 -8.679901 0.991000 -0.010700 -0.133100
57.445770 -29.321602 46.173401 0.971100 0.152800 -0.183400
-5.648712 43.400002 42.358673 -0.071600 0.973000 -0.219300
11.932892 36.662697 38.294891 0.424600 0.856700 -0.292900
48.843903 -8.945201 21.293976 0.925300 0.243900 -0.290400
48.560211 -15.849701 13.911987 0.924800 0.143800 -0.352200
39.456787 -22.167000 -10.135498 0.583000 0.376200 -0.720100
48.391266 -27.789902 6.314484 0.970800 -0.097500 -0.219300
41.770477 -56.636604 8.552002 0.921100 -0.347700 0.175100
51.751556 -49.403603 51.640289 0.838200 -0.526000 -0.144100
55.545563 -42.934799 78.851181 0.927600 -0.303600 0.217700
36.895782 10.711000 92.014084 0.481000 0.389800 0.785300
10.428101 32.781097 87.018494 0.067000 0.682300 0.727900
-1.615723 46.351700 65.266281 -0.192600 0.952200 0.237000
-2.882324 30.827299 9.433197 -0.008000 0.936600 -0.350200
28.829773 32.221802 -27.146912 0.342300 0.688000 0.639900
16.340271 -18.701900 -39.666412 0.557300 -0.827900 0.063600
45.298798 -41.885101 5.846100 0.752900 -0.658100 -0.006500
9.198883 29.193399 10.972290 0.332700 0.941200 0.058100
44.447968 -10.929400 5.907501 0.849500 0.317200 -0.421600
34.146576 -1.570601 -35.803314 0.903400 -0.268900 0.333900
49.114899 8.796799 82.431091 0.815400 0.405600 0.413000
17.566193 43.077904 60.374786 0.445200 0.895300 -0.013400
59.027496 -35.537201 50.756683 0.969800 -0.167700 0.177000
25.567596 33.598503 78.424286 0.511200 0.750300 0.419300
41.776672 23.630701 -27.349213 0.361000 -0.011800 0.932500
57.531158 -27.781200 76.848587 0.950200 0.003700 0.311800
52.005463 11.212297 -35.153107 0.224700 -0.547500 0.806100
60.885712 27.561998 -32.092926 0.380700 0.097900 0.919500
42.712799 -60.378204 31.104980 0.945400 -0.294100 0.140200
42.691864 -55.839897 28.146393 0.982500 -0.186300 0.001400
53.459808 3.542599 40.525391 0.960000 0.264700 0.091000
53.385406 0.629000 36.227081 0.616400 0.501600 -0.606900
47.663910 5.449999 25.649078 0.992100 -0.026600 -0.122700
48.672089 9.032799 28.272491 0.898000 0.312700 -0.309600
49.137665 11.253798 33.171082 0.873600 0.473900 -0.110400
49.435577 10.219398 38.432983 0.884200 0.463600 -0.057000
47.752167 -3.756802 20.897491 0.962500 0.213400 0.167700
49.707977 -0.938501 17.924896 0.976400 -0.062600 0.206600
106.867706 2.607698 -88.577301 0.785100 -0.594800 0.172700
47.807098 -1.867201 -48.056519 0.305500 -0.631300 0.712900
10.687897 81.577698 -101.383209 0.071100 0.997500 -0.000000
35.203979 78.477005 -101.383209 0.283800 0.958900 0.000000
51.160858 -46.208603 48.952393 0.693700 -0.573700 -0.435600
47.939667 -51.319901 48.138275 0.695800 -0.184900 -0.694100
45.545380 -54.307999 47.632294 0.561000 -0.627500 -0.539900
50.463104 -51.313900 51.457581 0.841700 -0.520700 -0.142700
53.587616 -46.106400 51.534485 0.842700 -0.523600 -0.125200
56.643158 -39.546799 51.191483 0.938300 -0.341300 0.056300
45.510468 59.510002 -46.202026 0.266300 0.746400 0.609900
80.891205 36.087898 -48.537506 0.610500 0.418600 0.672300
88.628815 16.078897 -52.093811 0.644600 -0.147500 0.750100
82.199188 -1.710501 -58.048523 0.459000 -0.536900 0.707800
62.804779 -16.512701 -63.720520 0.194500 -0.569000 0.799000
22.835480 -31.099899 -64.607300 0.284500 -0.695500 0.659800
16.482971 -33.557701 -64.714325 -0.082800 -0.757200 0.647900
10.130493 -30.951702 -64.821198 -0.106800 -0.810100 0.576500
6.584290 -32.349998 -66.741699 -0.104200 -0.856600 0.505300
4.427979 -32.788002 -68.895599 -0.281200 -0.835200 0.472700
1.853485 -33.286201 -71.427399 -0.573400 -0.648500 0.500600
15.481781 -19.904800 -44.237305 0.313600 -0.933400 0.174100
12.658081 -22.691101 -42.345123 0.887000 -0.352300 -0.298500
14.049377 -27.096901 -40.720306 0.819100 -0.352900 -0.452300
10.879181 -29.503799 -40.662598 0.466500 -0.770800 -0.433900
57.299713 63.288704 -69.321808 0.445500 0.833500 0.326900
92.811371 46.657402 -70.806122 0.588100 0.666200 0.458500
107.897064 22.834200 -71.345215 0.808600 0.059000 0.585300
98.436371 0.686699 -72.273315 0.712500 -0.548100 0.438100
70.676666 -26.681601 -71.867126 0.441800 -0.791500 0.422200
32.006195 -39.956802 -73.181824 0.219000 -0.794000 0.567100
17.783600 -40.682999 -73.528412 -0.117000 -0.834500 0.538400
9.192291 -38.653503 -74.652313 -0.256000 -0.861000 0.439400
6.011871 -38.443100 -75.663513 -0.101500 -0.911300 0.399000
3.722473 -38.716301 -76.416321 -0.034900 -0.903300 0.427500
1.718292 -39.020302 -77.135620 -0.016100 -0.888000 0.459500
2.084381 -41.950203 -101.383209 0.087900 -0.996100 0.001200
63.660065 64.742699 -101.383209 0.431000 0.902300 -0.008200
101.903961 46.632500 -101.383209 0.637200 0.770700 -0.000000
117.950287 24.690798 -101.383209 0.996500 0.083100 -0.000000
106.867706 2.607698 -101.383209 0.779000 -0.627100 -0.000000
70.676666 -26.681601 -101.383209 0.543800 -0.839200 0.000000
36.106171 -44.222401 -101.383209 0.366900 -0.930200 0.000000
20.029480 -48.877998 -101.383209 -0.199300 -0.979900 0.000000
11.232300 -41.717800 -101.383209 -0.382500 -0.924000 0.000000
7.294678 -41.315399 -101.383209 0.009300 -1.000000 0.000000
4.510590 -41.652100 -101.383209 0.121100 -0.992600 -0.000200
46.997162 -4.070801 16.365997 0.610000 -0.607500 -0.508800
18.087097 24.719099 6.884399 0.505300 0.862600 0.023000
29.806671 16.012499 4.889374 0.743900 0.668300 0.000400
19.527588 23.925299 -0.071106 0.532600 0.839600 0.107100
5.572296 29.934599 88.166092 -0.119900 0.576200 0.808500
-12.496307 42.255096 68.101486 -0.275000 0.913900 0.298500
-6.093414 42.812103 66.718491 -0.253900 0.913300 0.318500
-16.143005 39.940903 41.873901 -0.317200 0.926800 -0.201100
-10.895905 41.670403 42.116302 -0.288900 0.938500 -0.189000
-9.956421 26.476000 9.483093 -0.587500 0.690700 -0.421600
-6.828827 30.073900 9.434692 -0.449400 0.806800 -0.383500
-3.435913 31.039999 -13.492401 -0.517000 0.847400 0.121100
0.691681 34.081596 -12.659302 -0.177300 0.971800 0.155700
4.862091 36.333298 -24.153320 0.032600 0.829700 0.557300
18.854492 34.361900 -25.630707 0.237300 0.770500 0.591600
9.299988 51.693901 -36.414398 0.044700 0.617200 0.785500
23.113586 45.995399 -36.441925 0.196600 0.530700 0.824500
11.230377 63.471397 -48.145111 0.045200 0.772900 0.632900
30.339478 62.264999 -45.941498 0.127700 0.710800 0.691700
10.687897 81.577698 -71.867126 -0.036200 0.949800 0.310600
35.203979 78.477005 -71.867126 0.321100 0.905500 0.277400
35.203979 78.477005 -88.577301 0.304900 0.952100 0.021400
10.687897 81.577698 -88.577301 0.051100 0.998400 0.022600
51.499115 5.314400 38.862701 0.531800 0.348000 -0.772100
48.200165 13.293699 38.846893 0.917700 0.393000 -0.057900
45.809906 13.339399 42.068176 -0.219200 0.710500 0.668700
37.252777 -58.839104 3.911377 0.208400 -0.031700 0.977500
41.770691 -51.853001 2.785889 0.250600 -0.016200 0.968000
39.283691 -56.578804 3.582977 0.230500 -0.019200 0.972900
38.596191 -28.340101 41.687286 0.685700 -0.726800 -0.039900
32.690186 -30.827900 6.069092 0.198100 -0.065500 0.978000
23.527191 -36.679401 7.590179 -0.185100 0.030500 -0.982300
29.861389 -32.615501 6.522491 0.201100 -0.064500 0.977400
25.988800 -35.100700 7.174500 -0.203800 0.039900 -0.978200
44.098663 -45.325600 4.326477 0.699900 -0.503500 0.506500
30.133575 -59.986099 4.858673 0.239800 -0.332700 -0.912000
27.111572 -58.564301 5.448792 -0.593000 0.268800 -0.759000
30.214172 -59.491104 4.816498 0.361600 0.063900 -0.930100
26.961273 -59.065002 5.506500 -0.715500 -0.047200 -0.697000
27.145081 -59.747200 5.500275 -0.659300 -0.275100 -0.699800
29.692474 -58.348900 4.873779 0.140300 0.456800 -0.878400
27.482971 -60.207199 5.449280 -0.423100 -0.546000 -0.723100
27.475098 -58.324699 5.357391 -0.302300 0.476000 -0.825800
29.700378 -60.231400 4.965576 -0.081400 -0.543200 -0.835600
30.464874 -60.164101 5.203094 0.746300 -0.550600 -0.374000
29.976593 -60.466103 5.324799 0.220500 -0.943000 -0.249200
30.542999 -59.548103 5.155396 0.914600 0.117700 -0.386900
29.914185 -58.120300 5.221893 0.499800 0.787800 -0.359900
27.378174 -58.070602 5.773895 -0.347000 0.902700 -0.254500
27.440582 -60.416397 5.876892 -0.476900 -0.871800 -0.112000
27.041199 -59.840202 5.935577 -0.908600 -0.416200 -0.033500
26.811798 -58.988602 5.943390 -0.998700 -0.017000 -0.047100
26.969482 -58.365898 5.877899 -0.826700 0.539100 -0.161100
30.785492 -59.701500 9.377197 0.863500 -0.502300 0.044300
30.320496 -57.956902 9.417999 0.589000 0.805900 -0.059700
27.957001 -59.966599 9.508392 -0.556000 -0.794600 0.243700
27.565491 -58.215797 9.537689 -0.756800 0.625000 0.191700
31.543182 -60.097404 4.625977 -0.248700 -0.521200 -0.816400
31.086273 -59.787201 4.691681 -0.514300 -0.374800 -0.771400
30.700378 -59.172798 4.740784 -0.623500 -0.206900 -0.754000
30.617188 -58.622803 4.743774 -0.640800 0.208500 -0.738800
32.095093 -60.001999 4.538086 0.083900 -0.470100 -0.878600
32.432678 -57.199799 4.434296 -0.344100 0.461400 -0.817800
32.922180 -57.144402 4.356781 -0.034100 0.493500 -0.869100
33.910583 -58.579002 4.228577 0.376300 -0.228300 -0.897900
33.441498 -57.414703 4.280701 0.239000 0.377100 -0.894800
33.827393 -58.029099 4.231598 0.359000 0.178300 -0.916100
32.207184 -59.770699 9.359192 -0.160600 -0.956200 0.244700
31.220886 -58.200104 9.484589 -0.934400 0.266900 0.236000
34.454590 -58.064598 8.977173 0.991600 -0.128000 0.020100
33.611084 -56.828697 9.086395 0.221000 0.974600 0.037100
31.557800 -60.388397 5.031982 -0.255100 -0.949000 -0.185200
32.199799 -60.299400 4.930084 0.343700 -0.900300 -0.267100
31.007294 -59.988197 5.110596 -0.732500 -0.674900 -0.089100
30.525574 -59.221199 5.171875 -0.928400 -0.363700 -0.075600
30.401581 -58.547401 5.178894 -0.938100 0.316900 -0.139600
32.460571 -56.903999 4.827393 -0.378800 0.893100 -0.242600
34.258789 -58.655998 4.578491 0.864300 -0.356400 -0.354900
34.134796 -57.982201 4.585602 0.863700 0.344400 -0.367900
33.653076 -57.215202 4.646881 0.633300 0.693500 -0.343500
33.031586 -56.860603 4.737488 0.158200 0.933600 -0.321600
22.015686 -57.517998 6.079376 -0.093900 -0.661400 -0.744100
22.675781 -56.257797 6.013000 0.452900 0.301900 -0.838900
22.682373 -56.785599 6.009583 0.463300 -0.209800 -0.861000
19.492371 -55.487801 6.367493 -0.725000 -0.241900 -0.644800
20.218872 -54.280998 6.293396 0.063500 0.621900 -0.780500
19.760773 -54.434898 6.343079 -0.578500 0.413400 -0.703200
22.568481 -57.322701 10.301788 0.186000 -0.969700 0.158300
23.263489 -55.980804 10.168793 0.968500 0.241600 -0.061200
21.213379 -54.087303 10.454376 0.507100 0.854000 -0.116000
19.949097 -55.207298 10.672302 -0.972400 -0.151100 0.177600
20.712982 -53.920998 10.529602 -0.349900 0.935600 0.047700
22.202393 -57.812500 6.650574 0.088100 -0.982800 -0.162400
23.005798 -56.881401 6.508087 0.884300 -0.361600 -0.295400
23.016998 -56.239700 6.494690 0.866300 0.384600 -0.318900
19.333496 -55.495598 7.056274 -0.956900 -0.290100 0.015400
19.683990 -54.198601 6.977997 -0.759400 0.647300 -0.066300
20.223572 -53.983803 6.889801 0.096400 0.967600 -0.233300
23.268494 -58.340599 6.022583 -0.615800 -0.292200 -0.731700
23.144501 -57.800598 6.032074 -0.684000 -0.016600 -0.729300
23.276794 -57.185104 6.000275 -0.606600 0.216900 -0.764800
23.586090 -56.863403 5.946075 -0.195200 0.553200 -0.809800
23.734283 -58.779900 5.957886 -0.420300 -0.446000 -0.790200
25.864288 -57.806702 5.607483 0.217400 0.437200 -0.872700
25.467377 -59.653198 5.703094 -0.246500 -0.504800 -0.827300
26.022980 -59.722099 5.685791 0.088500 -0.518900 -0.850200
26.464478 -58.784904 5.599792 0.437700 0.031700 -0.898600
26.332184 -59.400398 5.631683 0.333100 -0.250000 -0.909200
23.699493 -58.069901 10.138702 -0.877200 -0.405200 0.257300
24.037781 -56.496498 10.057281 -0.413000 0.902800 0.120000
26.558197 -59.510399 9.718597 0.464000 -0.868200 0.176100
26.821198 -57.899002 9.648102 0.875600 0.482800 -0.017100
23.105774 -58.426201 6.520599 -0.881700 -0.467900 -0.061300
23.622589 -58.948502 6.381287 -0.584400 -0.803800 -0.111400
22.974274 -57.763802 6.529083 -0.998400 0.013400 -0.055500
23.129089 -56.996498 6.422791 -0.893300 0.423700 -0.150100
23.491882 -56.583199 6.358582 -0.279100 0.921000 -0.271600
25.599976 -59.944901 6.090576 -0.273700 -0.943500 -0.186600
26.105988 -57.638504 6.037781 0.521900 0.797200 -0.303600
26.236694 -60.003799 6.060394 0.331300 -0.901900 -0.277200
26.599487 -59.590500 5.996277 0.825200 -0.452200 -0.338400
26.764679 -58.822098 5.956482 0.940200 0.008300 -0.340600
26.550781 -58.118103 5.976990 0.787600 0.468600 -0.400200
38.666595 -46.838303 3.284393 0.452500 -0.311000 -0.835800
37.738098 -47.129002 3.482300 -0.194100 -0.631500 -0.750700
37.271088 -46.896400 3.562988 -0.641000 -0.399700 -0.655300
36.531494 -43.818199 3.555084 -0.760900 0.093200 -0.642200
37.906982 -43.676800 3.276276 0.347500 0.446000 -0.824800
36.858582 -43.468498 3.472992 -0.307100 0.587400 -0.748700
39.250580 -46.602798 7.501099 0.829000 -0.556600 0.054700
37.753296 -46.667000 7.736084 -0.617100 -0.753800 0.225700
38.471680 -43.306801 7.562683 0.552900 0.829400 -0.079800
36.994873 -43.457802 7.796082 -0.799600 0.587100 0.126400
38.989380 -47.045502 3.832581 0.804000 -0.524300 -0.280500
37.813690 -47.383801 4.022400 -0.090400 -0.987400 -0.130200
37.234497 -47.120701 4.108093 -0.753900 -0.655300 -0.046900
38.136383 -43.435600 3.900085 0.635200 0.730000 -0.252000
36.825897 -43.204002 4.100494 -0.296500 0.943800 -0.146000
36.403778 -43.605900 4.173676 -0.955000 0.292000 -0.052000
38.898499 -48.315601 3.398895 0.329500 0.314100 -0.890400
37.440674 -47.977100 3.620392 -0.605800 0.289800 -0.740900
37.860382 -47.831200 3.552185 -0.135500 0.519200 -0.843900
38.467773 -47.972301 3.459900 0.111000 0.493300 -0.862700
39.093597 -48.928600 3.379578 0.376900 0.065200 -0.924000
39.137695 -50.885201 3.408386 0.352900 -0.120300 -0.927900
37.315399 -50.462101 3.685303 -0.677700 -0.136900 -0.722500
38.978699 -51.412399 3.510986 0.229700 -0.428300 -0.873900
38.559082 -51.558201 3.579193 -0.119000 -0.539900 -0.833300
37.951599 -51.417198 3.671478 -0.408200 -0.510800 -0.756600
39.462189 -47.957500 7.492676 0.762400 0.646800 -0.022400
37.909485 -47.596901 7.728699 -0.602600 0.788400 0.123900
37.774689 -50.184700 7.796875 -0.974500 -0.140700 0.174800
39.534882 -51.184799 7.540192 0.636100 -0.757500 0.147200
37.980286 -50.739300 7.774902 -0.679800 -0.698100 0.224800
39.385986 -48.838001 3.735199 0.917200 0.159500 -0.365200
39.154297 -48.132900 3.826691 0.745100 0.575800 -0.336600
38.617096 -47.730598 3.903290 0.363300 0.886700 -0.286100
37.848389 -47.555702 3.951874 -0.065200 0.954700 -0.290400
37.323883 -47.711502 4.036682 -0.776000 0.602100 -0.187800
39.436279 -51.070503 3.767975 0.903200 -0.188500 -0.385600
37.171692 -50.541000 4.180176 -0.983800 -0.170900 -0.054500
39.233887 -51.667603 3.878693 0.609400 -0.723600 -0.324100
38.709290 -51.823402 3.963501 0.002700 -0.980000 -0.199000
37.950989 -51.647301 4.078674 -0.452900 -0.885400 -0.104900
37.411774 -51.152000 4.153900 -0.818000 -0.560900 -0.127900
36.916901 -56.650803 3.723999 0.371000 -0.123800 -0.920400
35.990875 -55.176201 3.841675 -0.108600 0.549900 -0.828100
36.447876 -55.486404 3.776001 0.251400 0.354200 -0.900800
36.833771 -56.100800 3.726898 0.354400 0.182300 -0.917200
36.596588 -57.114799 3.782501 0.181400 -0.407600 -0.895000
33.943878 -56.230499 4.180603 -0.467900 0.382000 -0.797000
34.549591 -58.169197 4.121277 -0.152400 -0.567400 -0.809200
33.685883 -56.654602 4.228577 -0.629200 0.111800 -0.769200
34.092590 -57.858902 4.187073 -0.512300 -0.380500 -0.769900
33.706787 -57.244499 4.236084 -0.637700 -0.185200 -0.747700
37.489777 -56.398201 8.472778 0.971500 -0.231500 0.050900
36.503387 -54.827499 8.598175 0.203900 0.978700 0.025300
34.506592 -56.044899 8.932190 -0.707700 0.696500 0.118500
35.065399 -57.685402 8.874878 -0.259000 -0.934900 0.242800
34.317871 -56.388000 8.967896 -0.974600 0.022100 0.223000
36.912079 -57.276901 4.138977 0.605300 -0.732200 -0.312200
37.265198 -56.727699 4.073883 0.901000 -0.207000 -0.381300
37.141174 -56.054001 4.080994 0.865100 0.350200 -0.359000
36.659485 -55.286903 4.142181 0.667400 0.660100 -0.344700
36.109100 -54.886703 4.220886 0.049500 0.951000 -0.305200
33.761078 -56.069901 4.609100 -0.706300 0.682400 -0.188100
34.564087 -58.460098 4.527283 -0.104100 -0.976600 -0.188100
34.013672 -58.059898 4.605988 -0.729300 -0.678100 -0.091300
33.531982 -57.292900 4.667175 -0.945200 -0.319200 -0.068900
33.479095 -56.573601 4.662292 -0.969700 0.210200 -0.124800
37.420776 -55.312103 3.635498 -0.009500 -0.492600 -0.870200
36.938477 -55.178200 3.687775 -0.414600 -0.434000 -0.799900
36.137177 -54.215401 3.791992 -0.666500 -0.060700 -0.743000
37.832977 -55.015297 3.600494 0.320900 -0.285300 -0.903100
37.091583 -52.156700 3.743103 -0.499000 0.349800 -0.792800
37.467896 -51.921898 3.710388 -0.185700 0.530100 -0.827400
38.787476 -52.956600 3.551697 0.482700 0.034900 -0.875100
37.986084 -51.993801 3.655884 0.158100 0.513100 -0.843600
38.520874 -52.450798 3.590698 0.338600 0.365000 -0.867300
37.969879 -55.093399 8.171173 0.122300 -0.978000 0.169200
36.605896 -53.925400 8.362885 -0.961300 -0.188300 0.201300
39.337097 -52.667503 7.598175 0.981400 0.191600 -0.015100
37.936188 -51.564102 7.796783 -0.217400 0.970800 0.101000
37.530701 -55.632202 4.016998 0.112800 -0.956900 -0.267500
38.018280 -55.308197 3.974976 0.696300 -0.637800 -0.329200
36.940186 -55.445000 4.081482 -0.551200 -0.822500 -0.140600
35.928192 -54.263000 4.212402 -0.980600 -0.161700 -0.111100
37.000000 -51.899300 4.158783 -0.728700 0.657900 -0.190300
39.089996 -52.944603 3.921387 0.936300 0.034600 -0.349400
38.745697 -52.333000 3.970795 0.716700 0.626300 -0.306600
38.077972 -51.762501 4.052185 0.392900 0.875600 -0.280900
37.446472 -51.646103 4.119202 -0.196200 0.943500 -0.267000
24.212891 -59.419899 6.753601 0.227700 -0.528300 0.817900
24.511871 -59.193398 6.703186 0.574900 -0.301600 0.760600
24.686188 -58.705498 6.673798 0.676500 -0.055700 0.734300
24.631378 -58.248802 6.683197 0.623800 0.311200 0.717000
23.747772 -59.297600 6.832275 -0.110900 -0.477100 0.871800
22.855682 -56.912804 6.983582 0.385100 0.479600 0.788400
22.449493 -56.828903 7.052277 0.090500 0.504400 0.858700
21.972076 -57.961601 7.132690 -0.339600 -0.316900 0.885600
22.091583 -57.016998 7.112701 -0.253600 0.327900 0.910000
21.917297 -57.504898 7.142090 -0.372900 0.050100 0.926500
23.315796 -59.011299 3.093994 0.227200 -0.915900 -0.331000
23.765686 -57.752098 3.018188 0.876800 0.399000 -0.268400
20.959381 -57.477699 3.492584 -0.966600 -0.229800 0.113200
21.375488 -56.169800 3.167877 -0.275900 0.957900 0.079300
24.251190 -59.659698 6.403381 0.267600 -0.951800 0.150000
23.714874 -59.536003 6.494080 -0.355500 -0.899400 0.254500
24.605377 -59.364601 6.343597 0.818700 -0.573500 0.029500
24.823090 -58.755501 6.306976 0.989400 -0.145500 0.003100
24.773590 -58.197701 6.315491 0.893600 0.442600 0.074900
22.753174 -56.657600 6.657288 0.417800 0.879700 0.227200
21.694489 -57.995903 6.835876 -0.791800 -0.476300 0.382400
21.644989 -57.438103 6.844391 -0.883500 0.125600 0.451300
21.862671 -56.828903 6.807800 -0.666300 0.590900 0.454900
22.284180 -56.577599 6.736603 -0.104800 0.917200 0.384400
